# .PCD v0.7 - Point Cloud Data file format
VERSION 0.7
FIELDS x y z
SIZE 4 4 4
TYPE F F F
COUNT 1 1 1
WIDTH 1435
HEIGHT 1
VIEWPOINT 0 0 0 1 0 0 0
POINTS 1435
DATA ascii
1.5915186 0.34165454 0.066074133
0.85056686 0.12009877 -1.4124292
0.95002365 0.13359791 -1.4102236
1.039207 0.145316 -1.4129179
1.1203229 0.15563995 -1.4194069
1.191884 0.16426688 -1.4309433
1.5435417 0.21231639 -1.4192828
1.5714301 0.21300763 -1.4560541
1.5420549 0.16764438 -1.9567168
1.5494375 0.16393924 -2.0134363
1.5537298 0.15955865 -2.0733185
1.5565709 0.15482897 -2.1350718
1.5583031 0.14981508 -2.1984644
1.5590398 0.14453578 -2.2634544
1.5588174 0.13899398 -2.3300636
1.5574868 0.1331538 -2.3984869
1.5547615 0.12694901 -2.4690588
1.5500774 0.12025279 -2.5423994
1.5407974 0.11249024 -2.6211905
1.5196254 0.084002972 -2.9311891
0.030331254 0.084498763 0.092937708
0.30522466 0.12589198 0.12335563
0.44867492 0.14565164 0.11809468
0.55685377 0.15965688 0.10384274
1.5632225 0.30087757 0.096754551
1.5915186 0.30219322 0.066074133
1.2074397 0.11856258 -1.4206018
1.3008823 0.13212913 -1.4160472
1.3836015 0.14368427 -1.4172341
1.4591579 0.15391505 -1.422035
1.5516912 0.16770297 -1.4134681
1.5714061 0.16677058 -1.4560715
1.5617396 0.15979654 -1.5204942
1.5643297 0.1552766 -1.5765754
1.5660136 0.15051925 -1.6339152
1.5668278 0.14552826 -1.6925305
1.5667094 0.14028662 -1.7525156
1.565593 0.13477623 -1.8139701
1.5632346 0.12894088 -1.8771454
1.5593063 0.1227051 -1.9423772
1.5521927 0.11571556 -2.0111084
1.5196254 0.030980945 -2.9311891
0.030225515 0.034134388 0.092907429
0.58775151 0.11852229 0.11347437
0.73704815 0.14067209 0.11408448
0.84852445 0.15628457 0.10441279
0.92788547 0.16629243 0.085425615
1.5632225 0.26135051 0.096754551
1.5915186 0.26273197 0.066074133
1.5495899 0.17024702 -0.87727571
1.5600185 0.16767669 -0.92225337
1.5654262 0.16405308 -0.97062159
1.5689139 0.15999752 -1.020607
1.5715286 0.15571952 -1.0716101
1.5729795 0.15115541 -1.1238606
1.5737662 0.14640486 -1.1770734
1.5737606 0.14143819 -1.2313683
1.5728797 0.13623434 -1.2868404
1.5708704 0.13073587 -1.3437077
1.5675437 0.12489772 -1.4021568
1.571358 0.12052774 -1.4561065
0.99742317 0.13526934 0.10890627
1.1099172 0.15214336 0.10299444
1.1979011 0.1645354 0.089964867
1.5632225 0.22182339 0.096754551
1.5915186 0.2232706 0.066074133
1.5595142 0.17049223 -0.43296838
1.5673928 0.16761255 -0.47577
1.5721868 0.16407293 -0.52046859
1.5755875 0.1602118 -0.56626916
1.5778685 0.15608078 -0.61307347
1.579304 0.15173304 -0.66077197
1.5800847 0.14720505 -0.70929182
1.5801785 0.14248735 -0.75867951
1.5793948 0.13753712 -0.80907643
1.5776744 0.13233787 -0.86055481
1.5748866 0.12685812 -0.91323364
1.5705291 0.12098604 -0.96746814
1.5611413 0.1139701 -1.0255001
1.2324021 0.12922436 0.10222411
1.3471842 0.14764965 0.10044003
1.4373524 0.1613332 0.091144562
1.5632225 0.18229634 0.096754551
1.5915186 0.18380934 0.066074133
1.5676534 0.17052966 -0.027879477
1.5742724 0.16758394 -0.067996264
1.5785058 0.16412127 -0.10941315
1.5816572 0.16040295 -0.15163064
1.5836947 0.15641898 -0.19469929
1.5850933 0.15226418 -0.23843884
1.5858446 0.14793444 -0.28287816
1.5860258 0.14344335 -0.32800531
1.5853277 0.13872343 -0.37399435
1.5838884 0.13380051 -0.42080998
1.5814997 0.1286273 -0.46858811
1.5777068 0.1231029 -0.51760089
1.5708511 0.11686498 -0.56877947
1.441401 0.1217373 0.092655659
1.5632225 0.14276922 0.096754551
1.5915186 0.14434803 0.066074133
1.5907741 0.13981265 0.02388978
1.5896091 0.13514602 -0.018870354
1.5875195 0.13023889 -0.062435389
1.5841963 0.12502182 -0.10697007
1.5790073 0.11935431 -0.15279388
1.5629134 0.10317481 0.096636057
1.591478 0.10487783 0.066058159
1.5629134 0.063645005 0.096636057
1.591478 0.065416098 0.066058159
1.5629134 0.024115324 0.096636057
1.591478 0.025954485 0.066058159
-0.025524318 2.9930899 0.059055805
-0.0017955303 2.9943027 0.091647625
-0.025524318 2.9534719 0.059055805
-0.0017955303 2.9546595 0.091647625
-0.025524318 2.9138536 0.059055805
-0.0017955303 2.9150162 0.091647625
-0.025524318 2.8742356 0.059055805
-0.0017955303 2.8753729 0.091647625
-0.025524318 2.8346174 0.059055805
-0.0017955303 2.8357291 0.091647625
-0.025524318 2.7949991 0.059055805
-0.0017955303 2.7960858 0.091647625
-0.025544882 2.7553735 0.059063911
-0.0017955303 2.7564425 0.091647625
-0.025544882 2.7157555 0.059063911
-0.0017955303 2.716799 0.091647625
-0.025544882 2.6761377 0.059063911
-0.0017955303 2.6771555 0.091647625
-0.025544882 2.6365197 0.059063911
-0.0017749667 2.6375194 0.091639996
-0.025544882 2.5969019 0.059063911
-0.0017749667 2.5978756 0.091639996
1.530407 3.0169563 0.038573503
-0.025565267 2.5572772 0.059072018
-0.0017955303 2.5582254 0.091647625
1.5303712 2.9662733 0.038583755
-0.049575925 2.9908104 -2.9975023
-0.025565267 2.5176592 0.059072018
-0.0017955303 2.5185819 0.091647625
1.5303712 2.9156017 0.038583755
-0.049575925 2.9380498 -2.9975023
-0.025565267 2.4780416 0.059072018
-0.0017955303 2.4789386 0.091647625
1.5303712 2.8649297 0.038583755
-0.049575925 2.885289 -2.9975023
-0.025565267 2.4384236 0.059072018
-0.0017955303 2.4392953 0.091647625
1.5303712 2.8142581 0.038583755
-0.049575925 2.8325279 -2.9975023
-0.025565267 2.3988061 0.059072018
-0.0017955303 2.3996518 0.091647625
1.5303712 2.7635863 0.038583755
-0.049575925 2.779767 -2.9975023
-0.025565267 2.3591881 0.059072018
-0.0018165112 2.3600025 0.091655731
1.5303712 2.7129145 0.038583755
-0.049575925 2.7270064 -2.9975023
-0.02558589 2.3195648 0.059079885
-0.0018165112 2.3203592 0.091655731
1.5303712 2.6622429 0.038583755
-0.049575925 2.6742454 -2.9975023
1.4940164 3.004734 -3.0293167
-0.02558589 2.2799473 0.059079885
-0.0018165112 2.2807159 0.091655731
1.5303712 2.6115713 0.038583755
-0.049575925 2.6214845 -2.9975023
1.4940164 2.9409571 -3.0293167
-0.02558589 2.2403297 0.059079885
-0.0018165112 2.2410729 0.091655731
1.5303712 2.5608993 0.038583755
-0.049575925 2.5687237 -2.9975023
1.4940164 2.8771799 -3.0293167
-0.02558589 2.2007122 0.059079885
-0.0018165112 2.2014296 0.091655731
1.5303712 2.5102277 0.038583755
-0.049575925 2.5159626 -2.9975023
1.4940164 2.8134027 -3.0293167
-0.02558589 2.1610944 0.059079885
-0.0018165112 2.1617866 0.091655731
1.5303712 2.4595559 0.038583755
-0.049575925 2.463202 -2.9975023
1.4940164 2.7496257 -3.0293167
-0.02558589 2.1214767 0.059079885
-0.0018165112 2.1221433 0.091655731
1.5303712 2.4088843 0.038583755
-0.049575925 2.4104409 -2.9975023
1.4940164 2.6858482 -3.0293167
-0.02558589 2.0818591 0.059079885
-0.0018165112 2.0825 0.091655731
1.5303712 2.3582125 0.038583755
-0.049575925 2.3576803 -2.9975023
1.4940164 2.6220713 -3.0293167
-0.02558589 2.0422416 0.059079885
-0.0018165112 2.0428567 0.091655731
1.5303712 2.3075409 0.038583755
-0.049575925 2.3049192 -2.9975023
1.4940164 2.5582938 -3.0293167
-0.02558589 2.002624 0.059079885
-0.0018165112 2.0032134 0.091655731
1.5303712 2.2568691 0.038583755
-0.049575925 2.2521584 -2.9975023
1.4940164 2.4945168 -3.0293167
-0.02558589 1.9630065 0.059079885
-0.0018165112 1.9635702 0.091655731
1.5303712 2.2061973 0.038583755
-0.049575925 2.1993976 -2.9975023
1.4940164 2.4307396 -3.0293167
-0.02558589 1.9233888 0.059079885
-0.0018165112 1.9239271 0.091655731
1.5303712 2.1555257 0.038583755
-0.049575925 2.1466365 -2.9975023
1.4940164 2.3669624 -3.0293167
-0.02558589 1.8837712 0.059079885
-0.0018165112 1.8842838 0.091655731
1.5303712 2.1048539 0.038583755
-0.049575925 2.0938759 -2.9975023
1.4940164 2.3031855 -3.0293167
-0.02558589 1.8441536 0.059079885
-0.0018165112 1.8446406 0.091655731
1.5303712 2.0541821 0.038583755
-0.049575925 2.0411148 -2.9975023
1.4940164 2.2394083 -3.0293167
-0.025565267 1.8045392 0.059072018
-0.0018165112 1.8049973 0.091655731
1.5303712 2.0035105 0.038583755
-0.049575925 1.9883541 -2.9975023
1.4940164 2.175631 -3.0293167
-0.025565267 1.7649214 0.059072018
-0.0018165112 1.7653542 0.091655731
1.5303712 1.9528387 0.038583755
-0.049575925 1.9355931 -2.9975023
1.4940164 2.1118538 -3.0293167
-0.025565267 1.7253036 0.059072018
-0.0018165112 1.7257109 0.091655731
1.5303712 1.9021668 0.038583755
-0.049575925 1.8828323 -2.9975023
1.4940164 2.0480766 -3.0293167
-0.032283008 1.7016524 -0.19619632
-0.036710918 1.6981831 -0.15025711
-0.039607704 1.6949512 -0.10547304
-0.041519761 1.6918806 -0.061563969
-0.042937994 1.6889038 -0.018294334
-0.044013262 1.6859999 0.024416447
-0.044710279 1.6831723 0.066570282
-0.0018165112 1.6860676 0.091655731
1.5303712 1.8514953 0.038583755
-0.049548745 1.830076 -2.9975314
1.4940164 1.9842995 -3.0293167
-0.02806443 1.7050607 -0.91247344
-0.036023796 1.7008767 -0.85672998
-0.03995198 1.6972759 -0.80403352
-0.042630374 1.6938784 -0.75264621
-0.044436157 1.6906307 -0.70230532
-0.045848072 1.6874675 -0.65271115
-0.046718776 1.6844068 -0.60392213
-0.047166526 1.6814315 -0.55585122
-0.047370613 1.6785171 -0.5083847
-0.047335327 1.6756622 -0.46150565
-0.046956718 1.6728792 -0.41525197
-0.04636693 1.6701503 -0.36954117
-0.045463324 1.6674876 -0.32441044
-0.044462442 1.6648629 -0.27974296
-0.043047607 1.6623154 -0.23567414
-0.041518867 1.6598063 -0.19205213
-0.039584279 1.6573718 -0.1489954
-0.037207365 1.6550155 -0.10650373
-0.034496009 1.6527226 -0.06451273
-0.03122586 1.6505201 -0.023100376
-0.027112186 1.6484418 0.017640114
-0.025627375 1.6460606 0.059096336
-0.0018165112 1.6464244 0.091655731
0.14281443 1.6614552 0.079163313
0.25384983 1.6722888 0.081147671
0.38026223 1.6848747 0.079273224
0.52935112 1.7000637 0.071399212
1.5303712 1.8008235 0.038583755
-0.049575925 1.7773106 -2.9975023
1.4935737 1.9204617 -3.0289607
-0.033608556 1.7042334 -1.6809804
-0.040182292 1.7000036 -1.6169116
-0.043703794 1.6962292 -1.5559475
-0.046199977 1.6926326 -1.4964602
-0.047905147 1.6891793 -1.4382293
-0.048999488 1.6858436 -1.3810852
-0.049681842 1.6825974 -1.3248556
-0.049912632 1.6794446 -1.2695432
-0.049907386 1.6763555 -1.2149754
-0.04955548 1.6733435 -1.1612086
-0.048860729 1.6704069 -1.1082187
-0.047967136 1.6675262 -1.0558929
-0.046693981 1.6647234 -1.0043297
-0.045274436 1.6619678 -0.95336413
-0.043348014 1.6593041 -0.90320182
-0.04114598 1.656702 -0.85368037
-0.038650215 1.6541629 -0.80479407
-0.035349071 1.6517489 -0.75681925
-0.031295478 1.649452 -0.70969319
-0.025607765 1.6473787 -0.66387153
-0.025627375 1.6064434 0.059096336
-0.0018165112 1.6067812 0.091655731
0.47510225 1.6530815 0.045572758
0.55445367 1.6593812 0.062702179
0.67031467 1.669667 0.068499804
0.80469888 1.6819031 0.069824219
0.96038431 1.6963683 0.066244125
1.1555822 1.715023 0.052603722
1.5303712 1.7501518 0.038583755
-0.049603164 1.7245458 -2.9974725
-0.038629711 1.7034645 -2.5763509
-0.044521034 1.6990554 -2.5015216
-0.048038125 1.6950163 -2.4299285
-0.05011332 1.6912165 -2.3605812
-0.051648736 1.6875322 -2.2925727
-0.05252707 1.6839771 -2.2259703
-0.052963853 1.6805205 -2.1605394
-0.052865744 1.6771731 -2.0963309
-0.052542329 1.6738927 -2.033042
-0.051848173 1.670697 -1.9707744
-0.050789535 1.6675839 -1.9094956
-0.049420536 1.6645451 -1.8491347
-0.047771215 1.6615753 -1.7896445
-0.04564923 1.6586978 -1.7311548
-0.043060958 1.6559104 -1.6736312
-0.039818466 1.6532347 -1.6171896
-0.036050022 1.6506532 -1.5616992
-0.030509114 1.6483181 -1.5080512
-0.040157497 1.6441469 -1.4438546
0.046168625 1.6517155 -1.4489908
0.12293845 1.6580453 -1.4458888
0.20368087 1.6647873 -1.4442441
0.28876197 1.6719788 -1.4441805
0.37792003 1.6795815 -1.4453881
0.47167999 1.6876514 -1.4480879
0.57160789 1.6963661 -1.453145
0.68194711 1.706214 -1.4630396
-0.025627375 1.5668261 0.059096336
-0.0018165112 1.567138 0.091655731
1.5258908 1.7239667 -0.4371891
1.5209742 1.7205863 -0.38046288
1.5177829 1.7174141 -0.32493377
1.5156734 1.7143818 -0.27032566
1.5142319 1.7114449 -0.21646309
1.5130913 1.7085648 -0.16320038
1.5124247 1.7057581 -0.1105783
1.1647213 1.6679752 0.049755096
1.3055985 1.6795849 0.055564165
1.471899 1.6936343 0.055823565
-0.05535543 1.6710438 -2.9913025
-0.054179847 1.6676452 -2.9184623
-0.052721202 1.664324 -2.8467796
-0.050609767 1.6611258 -2.7766035
-0.048282266 1.6579931 -2.707449
-0.045104742 1.6550043 -2.6399193
-0.041326225 1.6521256 -2.5737174
-0.036323249 1.6494322 -2.5094032
-0.02771914 1.6472127 -2.4491556
1.4935293 1.7929115 -3.0289249
-0.040013909 1.5981023 -1.4439583
0.68719089 1.6555457 -1.4663408
0.77518308 1.6620836 -1.4604347
0.87050378 1.6693361 -1.4575844
0.97135252 1.6771011 -1.4564905
1.0778465 1.6853836 -1.4570601
1.1904314 1.6942222 -1.4593856
1.3107271 1.7037781 -1.464205
1.4427309 1.7144558 -1.4734983
1.5140824 1.7187555 -1.4477954
1.5111251 1.7153656 -1.3818226
1.5090637 1.7121006 -1.3170075
1.5077271 1.7089413 -1.2532258
1.5067935 1.7058535 -1.190284
1.5064106 1.7028511 -1.128233
1.5062237 1.6998973 -1.0668778
1.5063839 1.6970062 -1.0062742
1.5067711 1.6941652 -0.94634867
1.5075727 1.6913922 -0.88717008
1.5085187 1.6886597 -0.82859993
1.5097566 1.6859813 -0.77069044
1.5112462 1.6833525 -0.71340799
1.513021 1.6807756 -0.65675259
1.5151896 1.6782609 -0.60075212
-0.025627375 1.5272088 0.059096336
-0.0018165112 1.5274947 0.091655731
1.5248604 1.6711562 -0.43680429
1.5302091 1.6690326 -0.38382673
1.5303712 1.6488082 0.038583755
-0.049575925 1.6190279 -2.9975023
0.46689445 1.6552364 -2.9931998
0.54101688 1.6602041 -2.987329
0.61891222 1.6655326 -2.9836402
0.70006412 1.671159 -2.9815164
0.78397167 1.6770227 -2.9803865
0.87077314 1.683135 -2.9802802
0.96054202 1.6894996 -2.9811645
1.0531986 1.6961035 -2.9828708
1.1495256 1.7030265 -2.9859691
1.2504356 1.710361 -2.9910936
1.3580499 1.7183247 -2.9998207
1.4934855 1.7291348 -3.0288894
1.5108044 1.7204955 -2.8025019
1.5061269 1.7165997 -2.7206211
1.5032363 1.7129292 -2.6410248
-0.039870858 1.5520549 -1.4440625
1.5002468 1.7059897 -2.4865253
1.4996057 1.7026614 -2.4111438
1.4992673 1.6993988 -2.3367774
1.4993958 1.6962168 -2.263514
1.4998987 1.6931057 -2.1912634
1.50073 1.6900592 -2.1199708
1.5018845 1.6870761 -2.0496082
1.5033574 1.6841547 -1.9801513
1.5051439 1.6812941 -1.9115753
1.5072818 1.6784964 -1.8438814
1.5098472 1.6757684 -1.7770934
1.5131176 1.6731355 -1.711349
1.5170465 1.6705918 -1.6465884
1.5223088 1.6682003 -1.5831604
1.5175123 1.6648819 -1.5147319
1.5468173 1.6648026 -1.465494
-0.025606751 1.4875934 0.059087992
-0.0018165112 1.4878515 0.091655731
1.5303712 1.5981365 0.038583755
-0.049575925 1.566267 -2.9975023
1.4934409 1.665359 -3.0288534
1.5222936 1.6649177 -2.970911
-0.03972733 1.5060046 -1.4441667
1.5175929 1.6075425 -1.514776
1.5466967 1.6074541 -1.4654292
-0.025606751 1.447976 0.059087992
-0.0018165112 1.4482083 0.091655731
1.5303712 1.5474648 0.038583755
-0.049575925 1.5135062 -2.9975023
1.4934855 1.6015916 -3.0288894
-0.039560497 1.4599532 -1.444288
1.5177126 1.5502045 -1.5148425
1.546536 1.5501047 -1.465342
-0.025606751 1.4083586 0.059087992
-0.0018165112 1.408565 0.091655731
1.5303712 1.496793 0.038583755
-0.049575925 1.4607453 -2.9975023
1.4935293 1.5378234 -3.0289249
-0.039393127 1.4138983 -1.4444096
1.5177922 1.4928616 -1.5148864
1.5464153 1.4927611 -1.4652767
-0.025606751 1.3687412 0.059087992
-0.0018165112 1.3689218 0.091655731
1.5303712 1.4461213 0.038583755
-0.049575925 1.4079845 -2.9975023
1.4935293 1.4740514 -3.0289249
-0.039225698 1.3678402 -1.4445307
1.5178728 1.4355173 -1.5149305
1.5462952 1.4354198 -1.4652119
-0.025606751 1.3291237 0.059087992
-0.0018165112 1.3292786 0.091655731
1.5303712 1.3954496 0.038583755
-0.049575925 1.3552235 -2.9975023
1.4935737 1.4102817 -3.0289607
-0.039082229 1.3217773 -1.4446349
1.5179522 1.3781713 -1.5149746
1.546134 1.3780788 -1.4651248
-0.025606751 1.2895063 0.059087992
-0.0018369555 1.2896345 0.091663599
1.5303712 1.3447778 0.038583755
-0.049575925 1.3024627 -2.9975023
1.4935737 1.3465092 -3.0289607
-0.038915336 1.2757125 -1.4447563
1.5180326 1.3208239 -1.5150189
1.5460134 1.3207424 -1.4650595
-0.025606751 1.2498889 0.059087992
-0.0018369555 1.2499914 0.091663599
1.5303712 1.2941061 0.038583755
-0.049575925 1.2497019 -2.9975023
1.4936178 1.2827381 -3.028996
-0.038747966 1.2296443 -1.4448779
1.5181127 1.2634751 -1.515063
1.5458531 1.263407 -1.4649727
-0.025606751 1.2102715 0.059087992
-0.0018369555 1.2103484 0.091663599
1.5303712 1.2434344 0.038583755
-0.049575925 1.196941 -2.9975023
1.4936624 1.218966 -3.0290318
-0.038580656 1.1835726 -1.4449992
1.5181923 1.2061247 -1.5151069
1.5457325 1.2060755 -1.4649076
-0.025606751 1.1706541 0.059087992
-0.0018369555 1.1707053 0.091663599
1.5303712 1.1927627 0.038583755
-0.049575925 1.1441801 -2.9975023
1.4936624 1.1551926 -3.0290318
-0.038413286 1.1374977 -1.4451208
1.5182726 1.1487727 -1.515151
1.5456119 1.1487463 -1.4648423
-0.025606751 1.1310366 0.059087992
-0.0018369555 1.1310623 0.091663599
1.5303712 1.1420909 0.038583755
-0.049575925 1.0914192 -2.9975023
1.4937067 1.0914192 -3.0290673
-0.038245857 1.0914192 -1.4452422
1.5183923 1.0914192 -1.5152175
1.5454512 1.0914192 -1.4647555
-0.025606751 1.0914192 0.059087992
-0.0018369555 1.0914192 0.091663599
1.5303712 1.0914192 0.038583755
-0.049575925 1.0386584 -2.9975023
1.493751 1.0276449 -3.0291033
-0.038078964 1.0453373 -1.4453638
1.5184727 1.0340639 -1.5152614
1.545331 1.0340948 -1.4646904
-0.025606751 1.0518018 0.059087992
-0.0018369555 1.0517762 0.091663599
1.5303712 1.0407475 0.038583755
-0.049575925 0.98589748 -2.9975023
1.493751 0.96387053 -3.0291033
-0.037911117 0.99925208 -1.4454851
1.5185528 0.97670704 -1.5153055
1.5452104 0.97677279 -1.4646251
-0.025606751 1.0121844 0.059087992
-0.0018369555 1.0121331 0.091663599
1.5303712 0.99007577 0.038583755
-0.049575925 0.93313658 -2.9975023
1.4937954 0.90009475 -3.0291386
-0.037744224 0.95316339 -1.4456067
1.5186329 0.91934866 -1.5153496
1.5450494 0.9194541 -1.4645383
-0.025606751 0.97256696 0.059087992
-0.0018369555 0.97249007 0.091663599
1.5303712 0.93940401 0.038583755
-0.049575925 0.88037574 -2.9975023
1.4938393 0.83631802 -3.0291743
-0.037576377 0.90707123 -1.4457281
1.5187125 0.86198878 -1.515394
1.544929 0.86213684 -1.4644732
-0.025606751 0.93294954 0.059087992
-0.0018369555 0.93284702 0.091663599
1.5303712 0.88873231 0.038583755
-0.049575925 0.8276149 -2.9975023
1.4938393 0.77254272 -3.0291743
-0.037409484 0.86097574 -1.4458497
1.5187929 0.80462742 -1.5154381
1.5447688 0.80482388 -1.4643865
-0.025606751 0.89333212 0.059087992
-0.0018369555 0.89320397 0.091663599
1.5303712 0.83806056 0.038583755
-0.049575925 0.77485394 -2.9975023
1.4938834 0.70876467 -3.0292101
-0.037241638 0.81487679 -1.4459713
1.5188727 0.7472645 -1.5154819
1.5446482 0.74751157 -1.4643214
-0.025606751 0.8537147 0.059087992
-0.0018369555 0.85356092 0.091663599
1.5303712 0.7873888 0.038583755
-0.049575925 0.72209311 -2.9975023
1.4938834 0.64498889 -3.0292101
-0.037074804 0.76877439 -1.4460926
1.5189929 0.68989742 -1.515548
1.5445275 0.69020152 -1.464256
-0.025606751 0.81409729 0.059087992
-0.0018369555 0.81391788 0.091663599
1.5303712 0.7367171 0.038583755
-0.049548745 0.66932964 -2.9975314
1.4939284 0.58120936 -3.0292454
-0.036906898 0.72266865 -1.4462142
1.519073 0.63253111 -1.5155926
1.5443673 0.63289684 -1.4641693
-0.025606751 0.77447987 0.059087992
-0.0018369555 0.77427483 0.091663599
1.5303712 0.68604541 0.038583755
-0.049548745 0.61656851 -2.9975314
1.4939725 0.51742893 -3.0292811
-0.036740005 0.67655939 -1.446336
1.5191531 0.57516325 -1.5156364
1.5442467 0.57559174 -1.4641042
-0.025606751 0.73486245 0.059087992
-0.0018369555 0.73463178 0.091663599
1.5303712 0.63537359 0.038583755
-0.049548745 0.56380731 -2.9975314
1.4939725 0.45365226 -3.0292811
-0.036572158 0.63044679 -1.4464571
1.5192327 0.51779395 -1.5156806
1.544086 0.51829267 -1.4640174
-0.025606751 0.69524503 0.059087992
-0.0018369555 0.69498873 0.091663599
1.5303712 0.5847019 0.038583755
-0.049548745 0.51104611 -2.9975314
1.4939725 0.38987553 -3.0292811
-0.036404788 0.58433074 -1.446579
1.5193133 0.46042311 -1.5157247
1.5439653 0.46099246 -1.4639523
-0.025606751 0.65562761 0.059087992
-0.0018369555 0.65534568 0.091663599
1.5303712 0.5340302 0.038583755
-0.049548745 0.45828491 -2.9975314
1.4939284 0.32610446 -3.0292454
-0.036237419 0.53821129 -1.4467006
1.519393 0.40305072 -1.5157691
1.5438452 0.40369451 -1.463887
-0.025606751 0.61601019 0.059087992
-0.0018369555 0.61570263 0.091663599
1.5303712 0.48335844 0.038583755
-0.049548745 0.40552372 -2.9975314
1.4938834 0.26233435 -3.0292101
-0.036070049 0.49208838 -1.4468222
1.5194728 0.3456769 -1.5158131
1.5436845 0.34640372 -1.4638004
-0.02558589 0.57639045 0.059079885
-0.0018369555 0.57605958 0.091663599
1.5303712 0.43268669 0.038583755
-0.049548745 0.35276252 -2.9975314
1.4938393 0.19856513 -3.0291743
-0.035902619 0.44596207 -1.4469438
1.5195932 0.28829622 -1.5158792
1.5435638 0.28911066 -1.4637351
-0.02558589 0.53677279 0.059079885
-0.0018369555 0.53641653 0.091663599
1.5303712 0.38201499 0.038583755
-0.049548745 0.30000132 -2.9975314
1.2522936 0.16270941 -2.9926376
1.3392067 0.15405947 -2.9844155
1.4339151 0.14427179 -2.9809923
1.4885001 0.1409061 -2.9441915
1.4895678 0.14595264 -2.8652163
1.4916248 0.1507901 -2.7878413
1.494225 0.15549099 -2.7116768
1.4975762 0.1600256 -2.6368439
-0.035734832 0.39983231 -1.4470656
1.5076928 0.16842926 -2.4918387
1.5161004 0.17205679 -2.4227087
1.5196731 0.23091894 -1.5159235
1.5434036 0.23182559 -1.4636483
-0.02558589 0.49715519 0.059079885
-0.0018369555 0.49677348 0.091663599
1.5303712 0.33134323 0.038583755
-0.049521208 0.247235 -2.9975607
0.72093004 0.16015023 -3.0006397
0.7936843 0.15274799 -2.989146
0.87416744 0.14408123 -2.9832931
0.96103507 0.13440496 -2.981595
1.0550683 0.12360168 -2.9844775
1.170722 0.10920936 -3.0038803
1.4938834 0.071007013 -3.0292101
-0.035567939 0.35369915 -1.4471867
1.5149508 0.11613083 -2.3475811
1.5063002 0.12263864 -2.2681873
1.5030389 0.12822145 -2.193351
1.5015211 0.13347 -2.1204872
1.5010562 0.13849872 -2.049077
1.5014606 0.14333934 -1.9789574
1.502599 0.14801598 -1.9100027
1.5044622 0.15253276 -1.8421714
1.5069172 0.15691245 -1.7753491
1.5100379 0.16114581 -1.7095497
1.5141392 0.165187 -1.6449221
1.5191703 0.16904652 -1.5813961
1.519753 0.17354017 -1.5159676
1.5393119 0.1751349 -1.4614363
-0.02558589 0.45753759 0.059079885
-0.0018369555 0.45713043 0.091663599
1.5303712 0.28067154 0.038583755
-0.049548745 0.19447893 -2.9975314
0.31274068 0.15126526 -2.9949875
0.38166559 0.14360934 -2.9868674
0.45618671 0.13497514 -2.9829054
0.53582954 0.12546992 -2.98242
0.62222332 0.11480135 -2.9867237
-0.035400093 0.30756259 -1.4473085
1.1130681 0.16773134 -1.4776368
1.198724 0.15846914 -1.464139
1.3031988 0.14626169 -1.4599724
1.4256511 0.13128781 -1.4640805
1.5210876 0.12077993 -1.4515829
1.5162272 0.12632698 -1.384527
1.5137444 0.13144362 -1.3194392
1.5126958 0.13628423 -1.2557554
1.5123987 0.1409604 -1.1930797
1.5129576 0.14545786 -1.1314318
1.5140514 0.14982915 -1.0706232
1.5157115 0.15407109 -1.0106442
1.5179701 0.15818077 -0.95148373
1.5209713 0.16213793 -0.89318228
1.5246315 0.16595733 -0.83567357
1.5292463 0.1695962 -0.77905846
1.5352993 0.17298424 -0.7235055
1.5449281 0.17580384 -0.66984487
-0.02558589 0.41792005 0.059079885
-0.0018369555 0.41748744 0.091663599
1.5303712 0.22999978 0.038583755
-0.049548745 0.14171779 -2.9975314
-0.041908324 0.14593124 -2.9314227
-0.034444034 0.15013009 -2.8657856
-0.017034709 0.15221834 -2.8109789
0.23150098 0.10670102 -2.9894524
-0.035232723 0.26142257 -1.4474301
0.71550119 0.163315 -1.4841635
0.77772462 0.15715927 -1.4620054
0.86602288 0.14651865 -1.4548657
0.96821159 0.13357562 -1.4546206
1.0929427 0.1168713 -1.4658794
1.5359039 0.11886203 -0.72375917
1.5284448 0.12456512 -0.66308141
1.5250998 0.12956429 -0.6047256
-0.02558589 0.3783024 0.059079885
-0.0018369555 0.37784433 0.091663599
1.5225425 0.14312065 -0.43593931
1.5230968 0.14733881 -0.38123631
1.5241938 0.15143496 -0.32721186
1.5257165 0.15542865 -0.27380562
1.5278778 0.15928864 -0.22107077
1.5305619 0.16303438 -0.16894674
1.5340147 0.16663009 -0.11749363
1.5382288 0.17007881 -0.066683292
1.543448 0.17334592 -0.016564131
1.5303712 0.17932802 0.038583755
-0.049603164 0.088968754 -2.9974725
-0.041112542 0.099302948 -2.8588512
-0.046990573 0.10658932 -2.7803094
-0.049347997 0.11302328 -2.7063746
-0.050113738 0.11903626 -2.6349487
-0.04971236 0.12472725 -2.5655265
-0.048189819 0.13011169 -2.4979944
-0.045798481 0.13524854 -2.4320483
-0.042394817 0.14011198 -2.3677695
-0.038043678 0.14472008 -2.305042
-0.031828523 0.1488865 -2.244638
-0.022402823 0.15233934 -2.1876602
-0.035064876 0.21527916 -1.4475517
0.40216762 0.15558177 -1.4615076
0.47699195 0.14638674 -1.451556
0.56419837 0.13497204 -1.4483941
0.66441143 0.12125582 -1.4520001
-0.02558589 0.3386848 0.059079885
-0.0018369555 0.33820128 0.091663599
1.2057612 0.17198515 0.036961079
1.2976584 0.16141945 0.057971954
1.4571707 0.14024335 0.060165882
-0.049603164 0.036208153 -2.9974725
-0.03646189 0.10029644 -2.2404587
-0.041589856 0.1071015 -2.1706328
-0.043812454 0.11319834 -2.1042356
-0.044597805 0.11891598 -2.0398664
-0.044397056 0.12435752 -1.9770706
-0.043077111 0.12949944 -1.9159058
-0.041027725 0.13442898 -1.8559965
-0.038036525 0.1391052 -1.7974721
-0.034286201 0.14357072 -1.7401391
-0.029051483 0.14767736 -1.6845233
-0.02192986 0.15134764 -1.6308641
-0.034897506 0.16913235 -1.4476733
0.065691352 0.1536271 -1.4629211
0.12827095 0.14596504 -1.4496281
0.20336759 0.13586867 -1.4440286
0.28851968 0.12386829 -1.4440167
0.38980469 0.10878551 -1.453289
-0.02558589 0.2990672 0.059079885
-0.0018369555 0.29855824 0.091663599
0.89817744 0.16712904 0.039074659
0.97051316 0.15901798 0.062999725
1.1055596 0.1404373 0.068198204
1.5303712 0.077984571 0.038583755
-0.031894326 0.10111314 -1.682313
-0.036587417 0.10753804 -1.6196599
-0.038853765 0.11336732 -1.559592
-0.039701641 0.1188277 -1.5012608
-0.039512813 0.1240074 -1.4443226
-0.038493812 0.12895483 -1.3885815
-0.036657035 0.13367623 -1.333988
-0.034155071 0.13820732 -1.2803984
-0.030691326 0.14248896 -1.2279806
-0.026299179 0.14653188 -1.1766691
-0.020333946 0.15020627 -1.1268444
-0.011363685 0.15322155 -1.0793619
-0.02558589 0.2594496 0.059079885
-0.0018369555 0.25891525 0.091663599
0.62209636 0.16178858 0.039266109
0.67373359 0.15671504 0.067345619
0.78953165 0.14026141 0.074813366
1.5303712 0.027312875 0.038583755
-0.027725875 0.10184944 -1.1757205
-0.031974018 0.10791934 -1.1192446
-0.03430146 0.11351079 -1.0646548
-0.035157382 0.1187278 -1.0115924
-0.035092056 0.12369382 -0.95965743
-0.034231365 0.12843984 -0.90873241
-0.032655418 0.13298607 -0.85873532
-0.030463398 0.1373564 -0.80957699
-0.027415931 0.14150339 -0.76136637
-0.02354449 0.14543682 -0.71405101
-0.018678844 0.14912438 -0.66769171
-0.011603057 0.15231848 -0.62290812
-0.02558589 0.219832 0.059079885
-0.0018579364 0.21927613 0.091671705
0.40355617 0.15444189 0.070995808
0.50379068 0.13978934 0.080255032
0.66751373 0.1133709 0.06944561
-0.023969829 0.10253042 -0.71381187
-0.027964294 0.1083107 -0.66257191
-0.030168235 0.11364657 -0.61287045
-0.031030357 0.1186412 -0.56440425
-0.031052768 0.1234073 -0.51686239
-0.030335128 0.12796921 -0.47016072
-0.02899617 0.13235503 -0.42421055
-0.027064979 0.13657361 -0.37897229
-0.024354577 0.14058816 -0.3345108
-0.020874202 0.14440328 -0.29079318
-0.016630888 0.14802343 -0.24778771
-0.01094842 0.15131134 -0.20576978
-0.0017697215 0.15384805 -0.16559601
-0.02558589 0.18021446 0.059079885
-0.0018579364 0.1796332 0.091671705
0.15587693 0.15232593 0.074286461
0.24381194 0.13912684 0.084804535
0.37342438 0.1178084 0.081702948
-0.010655105 0.096245468 -0.34106588
-0.020445049 0.10313517 -0.29099417
-0.02433461 0.1086784 -0.24425507
-0.026380241 0.11377102 -0.19884515
-0.027204156 0.11855286 -0.15443039
-0.027369678 0.12314898 -0.11072755
-0.026761174 0.12753731 -0.067759514
-0.02557534 0.13176268 -0.025418758
-0.023861587 0.13583738 0.016336918
-0.02558589 0.14059681 0.059079885
-0.0018579364 0.13999039 0.091671705
0.11597186 0.119802 0.089184523
-0.025503814 0.10096115 0.059047699
-0.0018369555 0.10034299 0.091663599
-0.025524318 0.061347604 0.059055805
-0.0018579364 0.060704708 0.091671705
-0.025503814 0.021724463 0.059047699
-0.0017955303 0.021047235 0.091647625
-0.026370525 2.9840255 -3.0205007
-0.026370525 2.9445961 -3.0205007
-0.026370525 2.9051669 -3.0205007
-0.026370525 2.8657374 -3.0205007
-0.026370525 2.8263083 -3.0205007
-0.026370525 2.7868788 -3.0205007
-0.026370525 2.7474494 -3.0205007
-0.026370525 2.7080202 -3.0205007
-0.026370525 2.668591 -3.0205007
-0.026370525 2.6291618 -3.0205007
1.5184121 3.0047786 -3.0122001
-0.026370525 2.5897324 -3.0205007
1.5184121 2.954427 -3.0122001
-0.026370525 2.550303 -3.0205007
1.5184121 2.9040756 -3.0122001
-0.026370525 2.5108738 -3.0205007
-0.0013104081 2.9994173 0.05484724
1.5184121 2.853724 -3.0122001
-0.026370525 2.4714446 -3.0205007
-0.0013104081 2.9464173 0.05484724
1.5184121 2.8033724 -3.0122001
-0.026370525 2.4320152 -3.0205007
-0.0013104081 2.8934176 0.05484724
1.5184121 2.7530208 -3.0122001
-0.026370525 2.3925858 -3.0205007
-0.0013379455 2.8404069 0.054818392
1.5184121 2.7026691 -3.0122001
-0.026370525 2.3531566 -3.0205007
-0.0013379455 2.7874074 0.054818392
1.5184121 2.6523175 -3.0122001
-0.026370525 2.3137274 -3.0205007
-0.0013379455 2.7344079 0.054818392
1.5184121 2.6019659 -3.0122001
-0.026370525 2.2742982 -3.0205007
1.5650663 3.0059829 0.0044608116
-0.0013379455 2.6814082 0.054818392
1.5184121 2.5516145 -3.0122001
-0.026370525 2.2348688 -3.0205007
1.5650663 2.9421644 0.0044608116
-0.0013379455 2.6284084 0.054818392
1.5184121 2.5012629 -3.0122001
-0.026370525 2.1954393 -3.0205007
1.5650663 2.8783455 0.0044608116
-0.0013379455 2.5754089 0.054818392
1.5183767 2.4509034 -3.0122101
-0.026370525 2.1560102 -3.0205007
1.5650663 2.8145266 0.0044608116
-0.0013659596 2.5224004 0.054788828
1.5183767 2.4005523 -3.0122101
-0.026390791 2.1165762 -3.0205083
1.5650663 2.7507079 0.0044608116
-0.0013659596 2.4694014 0.054788828
1.5183767 2.3502011 -3.0122101
-0.026390791 2.077147 -3.0205083
1.5650663 2.6868892 0.0044608116
-0.0013659596 2.4164019 0.054788828
1.5183767 2.2998495 -3.0122101
-0.026411653 2.0377138 -3.0205162
1.5650663 2.6230702 0.0044608116
-0.0013659596 2.3634026 0.054788828
1.5183413 2.2494917 -3.0122201
-0.026411653 1.9982848 -3.0205162
1.5650663 2.5592513 0.0044608116
-0.0013659596 2.3104033 0.054788828
1.5183413 2.1991405 -3.0122201
-0.026432037 1.9588519 -3.020524
1.5650663 2.4954329 0.0044608116
-0.0013659596 2.2574039 0.054788828
1.5183413 2.1487899 -3.0122201
-0.026432037 1.9194232 -3.020524
1.5651109 2.4316237 0.0044958591
-0.0013937354 2.2043979 0.054759502
1.5183413 2.0984387 -3.0122201
-0.026452422 1.8799908 -3.0205321
1.5651109 2.3678045 0.0044958591
-0.0013937354 2.1513989 0.054759502
1.5183413 2.0480878 -3.0122201
-0.026452422 1.8405622 -3.0205321
1.5651109 2.3039851 0.0044958591
-0.0013937354 2.0983999 0.054759502
1.5183413 1.9977368 -3.0122201
-0.026452422 1.8011336 -3.0205321
1.5651109 2.2401657 0.0044958591
-0.0013937354 2.0454009 0.054759502
1.5183065 1.9473808 -3.0122299
-0.026452422 1.7617052 -3.0205321
1.5651109 2.1763468 0.0044958591
-0.0013937354 1.9924018 0.054759502
1.5183065 1.8970302 -3.0122299
-0.026452422 1.7222764 -3.0205321
1.5651109 2.1125274 0.0044958591
-0.0013937354 1.9394031 0.054759502
1.5183065 1.8466794 -3.0122299
0.11658052 1.6987591 -3.0084114
-0.02669847 1.6828158 -3.0206261
-0.027748585 1.6853993 -2.9793811
-0.025787652 1.6884038 -2.9365628
-0.023120165 1.69153 -2.8930275
-0.019523382 1.694809 -2.8486557
-0.014009893 1.698375 -2.8029904
1.5651109 2.0487082 0.0044958591
-0.0013937354 1.886404 0.054759502
1.5183065 1.7963288 -3.0122299
0.42801881 1.6879257 -3.0259607
0.29992938 1.6752086 -3.0272725
0.18772802 1.6642965 -3.024689
0.086860538 1.6546611 -3.0195067
-0.026452422 1.6434193 -3.0205321
-0.019850194 1.6467686 -2.9762874
-0.022286654 1.6490359 -2.935159
-0.024202347 1.6513886 -2.8934717
-0.025820851 1.6538005 -2.8512995
-0.02713871 1.6562724 -2.8086274
-0.02823627 1.6587951 -2.7654765
-0.029047906 1.6613779 -2.7218058
-0.029633045 1.6640139 -2.6776285
-0.030073881 1.6666932 -2.6329706
-0.030175865 1.6694418 -2.5877285
-0.030192614 1.6722279 -2.5420103
-0.029927969 1.6750772 -2.4957082
-0.029399097 1.6779885 -2.4488165
-0.028668284 1.6809547 -2.4013526
-0.027511835 1.6840057 -2.3531845
-0.025878608 1.6871498 -2.3042641
-0.023961067 1.6903627 -2.2546747
-0.021261096 1.6937116 -2.204119
-0.017629087 1.6972187 -2.1524785
-0.011933446 1.7010382 -2.0990517
1.5651109 1.9848889 0.0044958591
-0.0013937354 1.833405 0.054759502
1.5183065 1.7459781 -3.0122299
0.96237922 1.6939132 -3.0322874
0.81197631 1.6800811 -3.0332344
0.68094099 1.6682606 -3.0299883
0.56457883 1.657959 -3.0236571
0.46446788 1.6493722 -3.0133328
-0.026452422 1.6039908 -3.0205321
-0.0070189238 1.6441705 -2.3423226
-0.012137532 1.6462771 -2.2968347
-0.015798807 1.6485835 -2.250174
-0.018705964 1.6510061 -2.2026825
-0.020805836 1.6535532 -2.1542988
-0.022721231 1.6561489 -2.1053538
-0.02420032 1.6588256 -2.0556846
-0.025419891 1.6615623 -2.0053763
-0.026330233 1.6643662 -1.9543813
-0.026973367 1.667233 -1.902709
-0.027368128 1.670161 -1.8503534
-0.027580917 1.6731431 -1.7973411
-0.027421653 1.6762043 -1.7435309
-0.027049065 1.6793255 -1.6890084
-0.026365221 1.6825202 -1.6336889
-0.02531755 1.6857967 -1.5775149
-0.023755014 1.6891761 -1.5203559
-0.029169202 1.6916659 -1.4676216
-0.019171894 1.696239 -1.4030282
-0.01557076 1.7000036 -1.3423647
-0.0094902515 1.7041438 -1.2790805
1.5650663 1.9210635 0.0044608116
-0.0013937354 1.780406 0.054759502
1.4202391 1.6858661 -3.0403264
1.2654747 1.6729974 -3.0361395
1.1305885 1.6620115 -3.0280902
1.019588 1.6533375 -3.0144532
1.5330089 1.7078433 -2.8022819
1.5358659 1.7108822 -2.7487621
1.5395865 1.7140363 -2.6944294
1.5450989 1.7174029 -2.6389332
-0.026452422 1.5645622 -3.0205321
0.71374917 1.7067827 -1.4969876
0.6075266 1.697472 -1.5032649
0.51080948 1.6891873 -1.5052915
0.41970515 1.6814826 -1.5053014
0.33296311 1.6742177 -1.5039525
0.25005162 1.667336 -1.5014721
0.17077476 1.6608198 -1.4978789
0.094724745 1.6546257 -1.4933467
0.0050427914 1.6467041 -1.4998078
-0.028857231 1.6455314 -1.4673947
-0.010722995 1.6507552 -1.3967869
-0.014179111 1.6533618 -1.3413188
-0.016907811 1.6560874 -1.2847509
-0.019146204 1.6589044 -1.2272292
-0.020763159 1.6618307 -1.168622
-0.022073746 1.6648283 -1.1091475
-0.023123145 1.6678925 -1.0488195
-0.023882389 1.6710281 -0.98759282
-0.024295807 1.6742438 -0.92539692
-0.024409294 1.6775347 -0.86224532
-0.024089575 1.6809196 -0.79799795
-0.023586154 1.6843674 -0.73284388
-0.022610843 1.687917 -0.66650319
-0.021233618 1.6915612 -0.59900594
-0.019288659 1.6953235 -0.53016567
-0.016633153 1.6992252 -0.4598074
-0.012906015 1.7033174 -0.38753748
-0.006634593 1.7078034 -0.31185174
-0.0013937354 1.727407 0.054759502
1.5183065 1.6452768 -3.0122299
1.5494024 1.6605228 -2.7443094
1.5444571 1.6626079 -2.6927848
1.5409719 1.6648493 -2.6403632
1.5387043 1.6672258 -2.587086
1.5366383 1.6696433 -2.5332847
1.5348507 1.6721091 -2.4789195
-0.026452422 1.5251336 -3.0205321
1.5324947 1.6772265 -2.3682909
1.5316371 1.6798518 -2.3121068
1.5311109 1.6825335 -2.2552786
1.5306927 1.6852509 -2.1978822
1.5305351 1.6880193 -2.139842
1.5305294 1.6908287 -2.0811911
1.5307528 1.6936874 -2.0218823
1.5312477 1.6966003 -1.9618814
1.5319408 1.6995609 -1.901207
1.5329512 1.7025818 -1.839787
1.534206 1.7056564 -1.7776396
1.5358667 1.708802 -1.7146682
1.5379782 1.7120242 -1.6508267
1.5406679 1.715337 -1.5860267
1.5440257 1.7187514 -1.5201924
1.4330859 1.7103789 -1.5154505
1.3118235 1.7008502 -1.518137
1.1987807 1.692085 -1.518187
1.0919112 1.6838799 -1.5165359
0.99035871 1.6761531 -1.5135047
0.89394927 1.6688933 -1.5090468
0.8021701 1.6620529 -1.5033236
0.71657467 1.6558051 -1.4952412
0.64565533 1.6510732 -1.4792612
0.0077826381 1.6007364 -1.4978527
-0.028569341 1.5993876 -1.4671857
1.5650663 1.793426 0.0044608116
0.58014399 1.7182091 0.028082132
0.0039441586 1.6511025 -0.44033623
-0.0042455792 1.6533961 -0.37921143
-0.0087532401 1.6561747 -0.31392145
-0.012175024 1.6591222 -0.24686074
-0.014686227 1.6622196 -0.17814255
-0.016681015 1.6654201 -0.10811281
-0.018179178 1.6687226 -0.036754131
-0.019391954 1.6721022 0.035750389
1.5183065 1.5949261 -3.0122299
-0.026452422 1.485705 -3.0205321
1.550104 1.6622899 -1.5169706
1.554575 1.6683838 -1.3842862
1.5502977 1.6708579 -1.3205578
1.5471663 1.6734662 -1.255602
1.5447438 1.6761689 -1.1896288
1.5428336 1.6789483 -1.1227214
1.5411942 1.6817822 -1.0549996
1.5401626 1.6847044 -0.98623574
1.5392039 1.6876638 -0.91673541
1.5386553 1.6906941 -0.84626937
1.5383534 1.6937804 -0.77491832
1.5383029 1.696924 -0.70265985
1.5384647 1.7001216 -0.62949872
1.539014 1.7033923 -0.55529499
1.5397844 1.7067198 -0.48013902
0.0075401962 1.5544102 -1.4980257
-0.028257132 1.5532405 -1.466959
1.5442942 1.7171435 -0.24809933
1.5466105 1.7207775 -0.16841006
1.5499302 1.7245553 -0.087043762
1.5546311 1.7285185 -0.0036520958
1.4548206 1.7215614 -0.0018930435
1.3531054 1.7143263 -0.0034368038
1.2557129 1.707469 -0.0032994747
1.1615618 1.7008805 -0.0022337437
1.0705332 1.6945527 -0.00023555756
0.98232448 1.6884574 0.0025360584
0.8969171 1.6825964 0.0061578751
0.81403661 1.676944 0.010477543
0.73392367 1.67153 0.015795708
0.65682691 1.6663861 0.022435427
0.58512241 1.6617811 0.032718182
-0.0013937354 1.6214091 0.054759502
1.5183065 1.5445755 -3.0122299
-0.026452422 1.4462764 -3.0205321
1.550104 1.6052028 -1.5169706
0.0072734058 1.5080867 -1.4982159
-0.027945161 1.5070871 -1.4667327
1.5650215 1.6657841 0.0044262409
-0.0013937354 1.56841 0.054759502
1.5183065 1.4942248 -3.0122299
-0.026432037 1.4068493 -3.020524
1.5501442 1.5481188 -1.5169491
0.0072245598 1.4617864 -1.4982507
-0.027656853 1.4609253 -1.4665234
1.5650215 1.6019659 0.0044262409
-0.0013937354 1.5154111 0.054759502
1.5183065 1.443874 -3.0122299
-0.026432037 1.3674206 -3.020524
1.5501442 1.4910313 -1.5169491
0.0071761608 1.4154871 -1.4982857
-0.027344644 1.4147594 -1.4662968
1.5650215 1.5381474 0.0044262409
-0.0013937354 1.4624121 0.054759502
1.5183065 1.3935233 -3.0122299
-0.026432037 1.3279917 -3.020524
1.550184 1.4339461 -1.516928
0.0071275532 1.3691887 -1.4983201
-0.027008533 1.3685884 -1.4660528
1.5650215 1.4743292 0.0044262409
-0.0013937354 1.4094131 0.054759502
1.5183065 1.3431727 -3.0122299
-0.026432037 1.288563 -3.020524
1.5502245 1.3768601 -1.5169066
0.0070305467 1.3228889 -1.4983892
-0.026672006 1.3224108 -1.4658084
1.5650215 1.4105108 0.0044262409
-0.0013937354 1.3564141 0.054759502
1.5183413 1.2928231 -3.0122201
-0.026432037 1.2491343 -3.020524
1.5502245 1.319772 -1.5169066
0.0068850815 1.276589 -1.4984931
-0.026359618 1.2762252 -1.4655812
1.5650215 1.3466926 0.0044262409
-0.0013937354 1.3034152 0.054759502
1.5183413 1.2424722 -3.0122201
-0.026432037 1.2097055 -3.020524
1.5502641 1.2626849 -1.516886
0.0067637563 1.2302928 -1.4985795
-0.026023328 1.230034 -1.4653373
1.5650215 1.2828742 0.0044262409
-0.0013937354 1.2504162 0.054759502
1.5183767 1.1921217 -3.0122101
-0.026432037 1.1702768 -3.020524
1.5502641 1.2055963 -1.516886
0.0066428483 1.1839992 -1.4986657
-0.02571094 1.1838355 -1.4651107
1.5650215 1.2190559 0.0044262409
-0.0013937354 1.1974171 0.054759502
1.5183767 1.1417705 -3.0122101
-0.026411653 1.1308482 -3.0205162
1.5503043 1.1485082 -1.5168644
0.0065698922 1.1377084 -1.4987178
-0.025398314 1.1376306 -1.4648836
1.5650215 1.1552376 0.0044262409
-0.0013937354 1.1444182 0.054759502
1.5184121 1.0914192 -3.0122001
-0.026411653 1.0914192 -3.0205162
1.5503043 1.0914192 -1.5168644
0.0065456033 1.0914192 -1.4987354
-0.025085926 1.0914192 -1.4646566
1.5650663 1.0914192 0.0044608116
-0.0013937354 1.0914192 0.054759502
1.5184121 1.0410676 -3.0122001
-0.026411653 1.0519903 -3.0205162
1.5503442 1.0343299 -1.5168433
0.0065456033 1.0451303 -1.4987354
-0.024749219 1.0452013 -1.4644122
1.5650663 1.0276004 0.0044608116
-0.0013937354 1.0384202 0.054759502
1.5184121 0.9907161 -3.0122001
-0.026411653 1.0125613 -3.0205162
1.5503442 0.97724056 -1.5168433
0.0065456033 0.99884123 -1.4987354
-0.024388552 0.99897599 -1.4641507
1.5650663 0.96378165 0.0044608116
-0.0013937354 0.98542124 0.054759502
1.5184121 0.94036454 -3.0122001
-0.026411653 0.97313243 -3.0205162
1.5503846 0.92015016 -1.516822
0.0065698922 0.95255148 -1.4987178
-0.024028003 0.95274329 -1.4638884
1.5650663 0.89996284 0.0044608116
-0.0013937354 0.93242228 0.054759502
1.5183767 0.89001417 -3.0122101
-0.026390791 0.93370277 -3.0205083
1.5504241 0.86305898 -1.5168006
0.0065698922 0.90626228 -1.4987178
-0.023666978 0.90650326 -1.4636265
1.5650663 0.83614409 0.0044608116
-0.0013937354 0.87942326 0.054759502
1.5183767 0.83966291 -3.0122101
-0.026390791 0.89427364 -3.0205083
1.5504241 0.80596888 -1.5168006
0.0065456033 0.85997427 -1.4987354
-0.02328229 0.86025459 -1.463347
1.5650663 0.77232528 0.0044608116
-0.0013937354 0.8264243 0.054759502
1.5183767 0.78931165 -3.0122101
-0.026370525 0.85484344 -3.0205007
1.5504646 0.74887657 -1.5167793
0.0065214932 0.81368673 -1.4987527
-0.022945106 0.81400102 -1.4631023
1.5650663 0.70850646 0.0044608116
-0.0013937354 0.77342534 0.054759502
1.5183767 0.73896039 -3.0122101
-0.026370525 0.81541419 -3.0205007
1.5504646 0.69178617 -1.5167793
0.0064728856 0.76740146 -1.498787
-0.022608399 0.76774061 -1.4628582
1.5651109 0.64468437 0.0044958591
-0.0013659596 0.72042406 0.054788828
1.5183767 0.68860906 -3.0122101
-0.026350021 0.77598345 -3.0204926
1.5505043 0.63469273 -1.5167587
0.0064246953 0.72111708 -1.4988216
-0.022271693 0.72147322 -1.4626133
1.5651109 0.58086514 0.0044958591
-0.0013659596 0.6674248 0.054788828
1.5183413 0.63826042 -3.0122201
-0.026350021 0.73655397 -3.0204926
1.5505043 0.57760191 -1.5167587
0.0064001679 0.67483151 -1.4988391
-0.021958411 0.6752013 -1.4623861
1.5651109 0.51704592 0.0044958591
-0.0013659596 0.61442542 0.054788828
1.5183413 0.58790946 -3.0122201
-0.026329398 0.69712269 -3.0204844
1.5505444 0.52050734 -1.5167372
0.0063758492 0.62854648 -1.4988563
-0.021621466 0.62892044 -1.4621415
1.5651109 0.45322663 0.0044958591
-0.0013659596 0.56142616 0.054788828
1.5183413 0.5375585 -3.0122201
-0.026329398 0.65769303 -3.0204844
1.5505444 0.46341616 -1.5167372
0.0064246953 0.58225381 -1.4988216
-0.021260262 0.58262998 -1.461879
1.5651109 0.38940734 0.0044958591
-0.0013659596 0.50842685 0.054788828
1.5183413 0.48720747 -3.0122201
-0.026350021 0.61826551 -3.0204926
1.5506248 0.40631598 -1.5166947
0.0064728856 0.53596008 -1.498787
-0.020899177 0.53633219 -1.461617
1.5651109 0.32558811 0.0044958591
-0.0013659596 0.45542753 0.054788828
1.5183413 0.43685651 -3.0122201
-0.026350021 0.57883608 -3.0204926
1.5506642 0.34921914 -1.5166733
0.0064246953 0.48967826 -1.4988216
-0.020561814 0.49003017 -1.4613721
1.5651109 0.26176888 0.0044958591
-0.0013659596 0.40242821 0.054788828
1.5183413 0.38650554 -3.0122201
-0.026370525 0.5394091 -3.0205007
1.5506642 0.29212689 -1.5166733
0.0064246953 0.44339049 -1.4988216
-0.020200372 0.44371784 -1.4611098
1.5651109 0.19794953 0.0044958591
-0.0013659596 0.34942895 0.054788828
1.5183413 0.33615452 -3.0122201
-0.026390791 0.49998248 -3.0205083
1.5507048 0.23502898 -1.5166521
1.5703377 0.17838466 -0.68136358
1.5629734 0.1746912 -0.61291146
1.5586954 0.17049354 -0.54173684
1.5561962 0.16598183 -0.46863174
0.0064246953 0.39710271 -1.4988216
-0.019838929 0.39739805 -1.4608474
1.5551404 0.15116274 -0.24008679
1.5569928 0.14577454 -0.16060781
1.560292 0.14010245 -0.079123735
1.5587026 0.13513327 -0.00048685074
1.4524726 0.14657545 -0.0037491322
1.3554733 0.15668404 -0.001532793
1.2656795 0.16575867 0.0048489571
1.1838975 0.17365336 0.01633215
-0.0013659596 0.29642963 0.054788828
1.5183413 0.28580356 -3.0122201
-0.026390791 0.46055335 -3.0205083
1.550745 0.1779303 -1.5166311
1.5563561 0.17257094 -1.4488025
1.5506501 0.16886926 -1.3864502
1.5470488 0.1648109 -1.3223841
1.5449643 0.1604802 -1.2568643
1.5436789 0.15598321 -1.1902506
1.5434097 0.15128392 -1.1223783
1.544131 0.14638311 -1.0532179
1.5457752 0.1412884 -0.98276711
1.5486085 0.13595492 -0.91081476
1.5534127 0.13025606 -0.83680725
1.5619684 0.12390429 -0.75949955
0.0064246953 0.35081494 -1.4988216
-0.019477725 0.35107094 -1.460585
1.5650663 0.07031858 0.0044608116
1.0881242 0.12338632 0.014629126
0.98806393 0.13516748 0.0074665546
0.89887947 0.14519501 0.007871151
0.81577021 0.15427691 0.012016058
0.73850864 0.16243684 0.01993084
0.66986847 0.16916871 0.034388304
-0.0013659596 0.24343032 0.054788828
1.5183413 0.23545265 -3.0122201
-0.026411653 0.42112732 -3.0205162
1.5528475 0.1703366 -2.1885817
1.5445559 0.16727549 -2.1338224
1.5399518 0.16362399 -2.0770552
1.5368823 0.15970308 -2.0191319
1.5348266 0.15558904 -1.9602404
1.5338353 0.15127122 -1.9003193
1.5336119 0.14679283 -1.8394712
1.534206 0.14214355 -1.7776396
1.5357491 0.13730067 -1.7147267
1.5383731 0.13224024 -1.6506253
1.5424556 0.12689954 -1.5850979
1.5496238 0.12101549 -1.5172253
1.4243908 0.136235 -1.5201516
1.3118976 0.14955932 -1.5180957
1.2142667 0.16061765 -1.5094807
1.1364479 0.1685726 -1.491009
0.0064246953 0.30452722 -1.4988216
-0.019091964 0.30473226 -1.460305
0.66983366 0.11153454 0.034356117
0.56984854 0.12468725 0.018494129
0.48713392 0.13471538 0.016887665
0.41018224 0.1437611 0.01922226
0.33814782 0.15196979 0.024908066
0.271299 0.15927458 0.034413576
-0.0013659596 0.19043106 0.054788828
1.5183413 0.18510163 -3.0122201
1.5404172 0.16565716 -2.7999096
1.5343133 0.16246182 -2.7492728
1.5303754 0.15890574 -2.6975398
1.5276055 0.15513766 -2.6449938
1.5258716 0.15117538 -2.5916462
1.5250019 0.14704281 -2.5375237
1.5247502 0.14277613 -2.4826903
-0.026432037 0.38170159 -3.020524
1.5268027 0.13372207 -2.3705201
1.529133 0.12892592 -2.3131113
1.5327266 0.12388432 -2.2546158
1.5386263 0.1184271 -2.1945517
1.1042688 0.11981523 -1.5094528
0.98930931 0.13476312 -1.5141177
0.8914867 0.14688903 -1.5105132
0.80593884 0.15699762 -1.5010374
0.74169952 0.16347444 -1.479713
0.0064246953 0.25823939 -1.4988216
-0.018609762 0.25836796 -1.459955
0.01398313 0.157098 -0.22090554
0.0074169636 0.15283185 -0.15586376
0.003066659 0.14805526 -0.087895155
0.00043529272 0.1428622 -0.017397165
-0.0013659596 0.13743168 0.054788828
1.4459833 0.1461544 -3.0329506
1.3278894 0.16070747 -3.0177369
1.5207399 0.12595224 -2.9097755
1.5239695 0.1211704 -2.8572161
1.5290965 0.1160419 -2.8035355
1.5391902 0.11006737 -2.7476685
-0.026432037 0.34227282 -3.020524
0.69781739 0.12004179 -1.5068338
0.59981257 0.13327044 -1.5081211
0.5138545 0.14438397 -1.5033391
0.43831557 0.15365493 -1.49315
0.0064246953 0.21195167 -1.4988216
-0.018248141 0.21201718 -1.4596922
0.013127744 0.15570879 -0.83000183
0.0047202706 0.15210462 -0.77284336
-0.00019574165 0.14773524 -0.71208692
-0.0035406351 0.14298779 -0.64930415
-0.0055301189 0.13790095 -0.58461356
-0.0064078569 0.13252026 -0.51816964
-0.0060761571 0.12681961 -0.4498179
-0.0042988658 0.12074316 -0.37926245
-0.00077861547 0.11422026 -0.30613208
0.0064240694 0.10682398 -0.22840595
-0.0013104081 0.084420204 0.05484724
1.5183767 0.084393859 -3.0122101
1.2773243 0.12014794 -3.0326457
1.1147972 0.14307481 -3.0328791
1.0090548 0.15665931 -3.0177369
-0.026432037 0.30284405 -3.020524
0.4408927 0.10378927 -1.4914675
0.33454484 0.11977375 -1.5029008
0.24886042 0.131796 -1.5022781
0.17247477 0.14207649 -1.4967073
0.10557628 0.15054977 -1.4857382
0.0064246953 0.1656639 -1.4988216
-0.017862141 0.165654 -1.4594117
0.01510942 0.15388972 -1.3777041
0.0031754375 0.1512664 -1.3282773
-0.0028129816 0.14738041 -1.2739766
-0.006746769 0.14302313 -1.2175888
-0.0094488263 0.13835943 -1.1596758
-0.011003017 0.13340175 -1.100246
-0.01136744 0.12813646 -1.0392087
-0.010724962 0.12259722 -0.97665572
-0.0088031292 0.11672103 -0.91230512
-0.0047571659 0.11031985 -0.84536481
0.0028312802 0.10307693 -0.77449226
-0.0013104081 0.031420231 0.05484724
1.5184121 0.034036398 -3.0122001
0.95525169 0.11941755 -3.0345089
0.81362337 0.14021188 -3.0327065
0.71821344 0.15296137 -3.0177274
-0.026432037 0.26341522 -3.020524
0.0024081469 0.15037584 -1.831262
-0.0047830343 0.14697629 -1.7824563
-0.0092938542 0.14298147 -1.73148
-0.012540996 0.1386795 -1.6791898
-0.014558911 0.1340726 -1.6255554
-0.015736282 0.12923855 -1.570797
-0.015893638 0.12413538 -1.5147465
-0.01750046 0.11928821 -1.4591496
-0.012765288 0.11302167 -1.3982954
-0.0087763071 0.1068489 -1.3372587
-0.00034403801 0.099640608 -1.2720892
0.66357523 0.11846584 -3.0357006
0.53822088 0.13759887 -3.032557
