# .PCD v0.7 - Point Cloud Data file format
VERSION 0.7
FIELDS x y z
SIZE 4 4 4
TYPE F F F
COUNT 1 1 1
WIDTH 1517
HEIGHT 1
VIEWPOINT 0 0 0 1 0 0 0
POINTS 1517
DATA ascii
2.9754395 1.6082913 0.53747845
3.0336525 1.5766494 0.53866869
3.0996187 1.5725431 0.54527879
1.4640856 1.5768117 0.58565325
1.5057396 1.5753369 0.59805387
1.5765646 1.5927846 0.55575663
1.642262 1.6036874 0.58171391
1.710099 1.6048145 0.5824002
1.7787772 1.6033804 0.581541
1.855529 1.6026856 0.58193058
1.9290268 1.6051816 0.58047432
1.9843245 1.6029438 0.57397664
2.068604 1.6046044 0.58081001
2.1408093 1.602561 0.58033359
2.1991367 1.6079227 0.57375324
2.3059092 1.6090469 0.57884175
2.3577116 1.6063229 0.5758487
2.4082778 1.6054569 0.56865805
2.4955964 1.6008286 0.57360893
2.5423965 1.6036515 0.56223875
2.8607593 1.6045202 0.5632773
3.0043323 1.6015 0.56274348
3.0420609 1.584424 0.55803216
3.0939357 1.5734383 0.58384317
1.51533 1.5713073 0.63086647
1.462638 1.5026448 -2.5253201
1.4957268 1.504925 -2.5285318
3.0005741 1.5166769 -2.5243316
3.0376425 1.5042093 -2.5240498
1.4529809 1.5056992 -2.4853942
1.5158015 1.5054531 -2.4797256
1.544623 1.5067334 -2.4833646
2.9940722 1.5082738 -2.4841013
3.0500596 1.5062692 -2.4870241
3.0842075 1.5040119 -2.4775803
1.4605922 1.4993894 -2.4417672
1.5214351 1.5044875 -2.42623
2.9993675 1.5023977 -2.4410155
3.0105932 1.5071083 -2.4150221
3.0829179 1.5018171 -2.4435544
3.0373924 1.4935628 -1.9625838
1.4547067 1.5048511 -1.9108881
1.5049973 1.5028006 -1.9134108
1.5454051 1.5005412 -1.9040803
3.002126 1.498027 -1.9123673
3.0433614 1.5038289 -1.925249
3.0944638 1.5060111 -1.921863
1.4547657 1.5009121 -1.8668128
1.5118108 1.5067894 -1.8641886
1.5435752 1.5041002 -1.8719434
3.0068784 1.5040121 -1.8829883
3.0341513 1.5077193 -1.879516
3.0884869 1.5068582 -1.8815148
1.5334224 1.4881487 -1.0535874
1.5504869 1.5271947 -1.0547481
1.5243275 1.50404 -1.0117284
1.568718 1.5050194 -1.0033128
1.6110398 1.4995472 -1.0189439
1.5309347 1.5028408 -0.97470373
1.5659734 1.5101819 -0.97414267
1.5019433 1.5052255 0.55533594
1.5534621 1.5048664 0.5481891
3.0077093 1.5162482 0.54174578
3.0525529 1.5040835 0.54204535
3.0991452 1.5048965 0.5437361
1.4623585 1.4991843 0.58274859
1.5055693 1.5111325 0.58447719
1.5720009 1.5235462 0.55655211
3.0052135 1.5270925 0.56690562
3.053792 1.5149565 0.5602861
3.0953267 1.5047286 0.58232033
1.5143951 1.5038784 0.6303556
1.4605714 1.4390554 -2.5267825
1.4969283 1.4343071 -2.5280168
3.0021694 1.4401013 -2.5239687
3.0385909 1.4358671 -2.5243471
1.4528924 1.4345839 -2.4869938
1.5070852 1.4333185 -2.4880505
1.5429691 1.4386297 -2.4842017
2.9948676 1.4361571 -2.48456
3.049608 1.4375104 -2.480402
3.0847509 1.4346545 -2.4795778
1.45552 1.4400985 -2.4450457
1.5170267 1.4378344 -2.428679
2.9952903 1.4349679 -2.4395745
3.0271332 1.4386272 -2.4172554
3.0806096 1.4469893 -2.4467146
3.0560389 1.4352218 -1.9614317
1.4549206 1.4361457 -1.9105815
1.5062295 1.434218 -1.914041
1.5444127 1.4393009 -1.9065907
3.0013678 1.4398149 -1.9146293
3.0442052 1.4336398 -1.9253712
3.0936654 1.4352984 -1.9181743
1.4565233 1.4338498 -1.8659588
1.5184913 1.439979 -1.8730813
1.5440586 1.4423041 -1.8803488
3.0054741 1.429633 -1.8830355
3.0497413 1.4381268 -1.8805709
3.0889075 1.4366151 -1.8778923
1.5371315 1.450953 -1.053256
1.5616904 1.4381416 -1.0529135
1.5236636 1.4373063 -1.0113436
1.5696439 1.4360741 -1.0063246
1.611145 1.4073787 -1.0236189
1.5306668 1.4309464 -0.97604388
1.5614752 1.4344469 -0.97488296
1.469548 1.4322376 0.54055148
1.4980825 1.4374101 0.55345267
1.5569724 1.4292291 0.55055451
3.0084424 1.464654 0.5251649
3.0522509 1.4368604 0.54082
3.0977871 1.4339104 0.54202753
1.4625818 1.4245872 0.58663881
1.5066054 1.4360218 0.59756649
1.5745739 1.4521846 0.59751832
3.0046363 1.4306377 0.56580943
3.0302658 1.4704821 0.50667763
3.095907 1.4348465 0.58180517
1.5119569 1.433122 0.63065457
1.4604882 1.3663636 -2.5246685
1.4949976 1.3657125 -2.527807
3.0029039 1.3636402 -2.5252492
3.0345275 1.3682972 -2.5243607
1.452687 1.3668553 -2.4829738
1.5049099 1.3638552 -2.486788
1.5437857 1.3663281 -2.4808834
2.9941721 1.3627578 -2.4831405
3.048692 1.3650383 -2.4855824
3.0233116 1.3771102 -2.4412489
1.4580128 1.3642368 -2.4413533
1.520185 1.3710061 -2.4286664
2.997576 1.3675787 -2.441622
3.0397184 1.3681504 -2.4285729
3.080261 1.3726435 -2.4475937
3.0398116 1.3622541 -1.9621751
1.4552053 1.3637514 -1.9098451
1.5052401 1.3642917 -1.9152225
1.5470651 1.3756204 -1.9044436
3.0040863 1.3609921 -1.9098172
3.0442495 1.3647964 -1.9254699
3.0943911 1.3659891 -1.9209088
1.4557484 1.3643519 -1.8692635
1.5064611 1.3656373 -1.8656373
1.5445106 1.3555222 -1.8804657
3.0058613 1.3686845 -1.8819833
3.0308607 1.37129 -1.8863392
3.0867972 1.3694317 -1.8769594
1.5335869 1.37269 -1.0535761
1.5496399 1.3768911 -1.0549598
1.5257256 1.3632556 -1.0122045
1.568094 1.3692516 -1.0095286
1.6104636 1.3787135 -1.0134085
1.5307765 1.3719729 -0.97402167
1.5606146 1.3660998 -0.97476125
1.4646603 1.3657007 0.55802095
1.5077149 1.3640577 0.55363482
1.5524873 1.3726879 0.55049783
3.0050614 1.3447114 0.55866486
3.0523994 1.3677143 0.54058945
3.1017623 1.3640808 0.54247743
1.464988 1.3653437 0.59033555
1.5206426 1.3733174 0.59403443
1.5746391 1.3828423 0.59642965
3.0443184 1.3663846 0.58117962
3.0966134 1.364396 0.58095282
1.5105751 1.3629729 0.63065946
1.5425159 1.3684788 0.63005531
1.4603883 1.2926375 -2.5255129
1.4975511 1.2951014 -2.5272291
2.9969842 1.2765459 -2.5225644
3.0363328 1.2961946 -2.5246966
1.4525762 1.295662 -2.4863501
1.5075763 1.2934841 -2.4842265
1.5442135 1.2992225 -2.4843025
2.9948323 1.2949032 -2.4837928
3.0513458 1.2935575 -2.4869306
3.0846128 1.2914921 -2.4783247
1.4597564 1.2867694 -2.4421351
1.5170094 1.3031998 -2.430268
2.9993529 1.2889721 -2.4402843
3.0125241 1.3020139 -2.4225202
3.0815969 1.2808324 -2.4444063
3.0470288 1.2835568 -1.9614466
1.4557886 1.2951683 -1.9105322
1.505731 1.2947742 -1.9141235
1.5443757 1.2825145 -1.9073081
3.0016603 1.2907052 -1.9109654
3.0445087 1.2973865 -1.9262606
3.0938809 1.2954215 -1.9183217
1.4558834 1.2959118 -1.8704022
1.5039148 1.2959194 -1.8658494
1.544976 1.2991233 -1.8808469
3.0032923 1.2767817 -1.8876209
3.0488732 1.2946283 -1.8754379
3.0874443 1.316561 -1.9066274
1.5327488 1.3074681 -1.0530225
1.5579602 1.2864063 -1.0540725
1.5252987 1.2932531 -1.0123584
1.5771836 1.2966737 -1.0087432
1.6105229 1.3133938 -1.0276667
1.532032 1.3009652 -0.97516769
1.5624818 1.2894166 -0.97480333
1.4662791 1.3174124 0.54174405
1.5036364 1.2910475 0.55225772
1.5552545 1.299891 0.55231076
3.0035617 1.293287 0.55668128
3.0341694 1.3123803 0.50581008
3.1022458 1.2928054 0.541619
1.4637061 1.3049051 0.57708031
1.507526 1.2953255 0.59636539
1.5534102 1.3183448 0.5934751
3.0059283 1.2884703 0.56968254
3.0547769 1.3059173 0.58214384
3.0975645 1.2951524 0.58032894
1.5160547 1.2944741 0.6306392
1.5407845 1.3295512 0.63090193
1.4614259 1.2242769 -2.5263062
1.4936959 1.2248996 -2.5284092
3.0066252 1.2165413 -2.5241029
3.038578 1.2255439 -2.5244639
1.4522927 1.2228211 -2.4830582
1.5157697 1.2274606 -2.4818587
1.5441055 1.2221847 -2.4817882
2.9942186 1.2257732 -2.4819019
3.0511184 1.2239486 -2.4861727
3.0852246 1.2251024 -2.4798336
1.4593883 1.2263035 -2.4416592
1.5443074 1.2416605 -2.4184377
3.0003383 1.2267731 -2.4376879
3.0244684 1.2305632 -2.4293108
3.0827043 1.2339425 -2.4473825
3.0399485 1.2193161 -1.9622133
1.4551773 1.2238219 -1.9117695
1.5037117 1.2238626 -1.9138136
1.5445746 1.2231562 -1.901436
3.0030925 1.2324929 -1.9090923
3.0459745 1.2263607 -1.9259666
3.0942955 1.2274555 -1.9222649
1.4561405 1.2251683 -1.8702943
1.5119764 1.2287083 -1.8660622
1.7072846 1.2879095 -1.9559739
3.0084434 1.2205209 -1.88326
3.0448825 1.2263716 -1.8812765
3.0680935 1.2388328 -1.8993113
1.5316449 1.2312373 -1.0534687
1.5653232 1.2273819 -1.054093
1.5257357 1.223314 -1.0102237
1.5684569 1.2271535 -1.0107112
1.6117002 1.2336388 -1.0140883
1.5354468 1.2284395 -0.97521746
1.5607055 1.2178781 -0.97541964
1.4657925 1.2069936 0.54882562
1.5039705 1.2314099 0.55287331
1.5436594 1.2370057 0.55692315
3.0028355 1.2016001 0.54907054
3.0367138 1.2283551 0.54156888
3.1005015 1.2237192 0.54421163
1.4632545 1.2275716 0.58015347
1.5136338 1.2271665 0.59460104
1.5545031 1.2483239 0.59465325
3.05409 1.2395307 0.5804708
3.0963628 1.2256962 0.58191478
1.5124784 1.2190868 0.63046825
1.4596148 1.1532308 -2.5260832
1.496225 1.1525687 -2.5276659
2.9966962 1.1497432 -2.5220885
3.0345173 1.1556647 -2.5242341
1.4528739 1.155421 -2.4855905
1.5150187 1.1582984 -2.4807246
1.5447809 1.1577355 -2.4865937
2.9936554 1.1537217 -2.4819851
3.0492043 1.1549416 -2.4863951
3.0840781 1.1600286 -2.4804206
1.4593165 1.1553611 -2.4403219
1.5208027 1.1631178 -2.4323888
2.9986711 1.1609799 -2.43925
3.0403521 1.1566979 -2.437398
3.0393376 1.1552753 -1.9614364
1.4557111 1.1573913 -1.9105788
1.5043143 1.1534292 -1.9151567
1.5449728 1.1630169 -1.9051814
3.0027642 1.1576636 -1.9110531
3.0441914 1.1553612 -1.9257709
3.0937266 1.1548477 -1.9209853
1.4552172 1.1533674 -1.8710843
1.5084554 1.1612936 -1.8693354
1.5425484 1.1565856 -1.8796122
3.0072472 1.1771609 -1.8878026
3.0375133 1.1577737 -1.8813183
3.0927503 1.1547559 -1.8820556
1.5303525 1.1501745 -1.0531826
1.5752622 1.1538829 -1.0539405
1.5258002 1.1532677 -1.0127902
1.5864203 1.1604185 -1.0226096
1.6116605 1.1804426 -1.0094241
1.5320427 1.1610466 -0.97562754
1.564757 1.1559985 -0.97503078
1.4635953 1.1373653 0.5591985
1.4984844 1.1595014 0.55344921
1.5496612 1.14967 0.55640936
3.0052381 1.1698239 0.54690439
3.0321417 1.1757858 0.54353005
3.10144 1.1544482 0.54343849
1.4633186 1.149771 0.58529007
1.5206625 1.1680769 0.58060205
1.5757325 1.1826344 0.55014533
3.0299859 1.172536 0.55982006
3.0958173 1.1557213 0.58278829
1.5100623 1.1448619 0.6306752
1.4620667 1.0852157 -2.5260403
1.4954193 1.0856268 -2.5277746
3.004709 1.0886769 -2.5258594
3.0357256 1.0900115 -2.5238624
1.4534625 1.0887575 -2.4851453
1.5078274 1.0850271 -2.485028
1.5433977 1.0762171 -2.4853904
2.9936357 1.0861728 -2.4821877
3.0506952 1.0865037 -2.4846134
3.0843596 1.0907348 -2.4795406
1.4589536 1.083288 -2.4422069
1.4943588 1.0850078 -2.4418194
2.9976351 1.0884963 -2.4394331
3.0400894 1.0848944 -2.4373629
3.0402677 1.0764961 -1.9617118
1.4567624 1.0867229 -1.9128598
1.503455 1.0854319 -1.9150491
1.544577 1.0816036 -1.9082699
3.002743 1.0835096 -1.9118294
3.0443254 1.0836784 -1.924608
3.0941997 1.0848984 -1.9194851
1.4564543 1.0835418 -1.8699536
1.5282964 1.0969504 -1.8765792
1.5448689 1.0884296 -1.8777056
3.0068862 1.0837976 -1.8822467
3.0441384 1.0908558 -1.8824588
3.0884993 1.0817518 -1.8807441
1.5346508 1.0758743 -1.0540417
1.5594386 1.0869799 -1.0538163
1.5261581 1.0831816 -1.0215355
1.5892406 1.0928072 -1.0200545
1.6129625 1.0833976 -1.0147821
1.5329454 1.095757 -0.97650146
1.5602002 1.0842961 -0.97332031
1.4643992 1.0720558 0.55179423
1.500165 1.0909036 0.55395716
1.5562171 1.0939306 0.55263186
3.0054419 1.0922732 0.54949749
3.0482676 1.0863934 0.54289824
3.0984082 1.0850781 0.54137784
1.4616587 1.0812105 0.58117801
1.5070442 1.086507 0.5983361
1.5541555 1.0851479 0.59157228
3.0309966 1.1049511 0.55813795
3.0973983 1.0865364 0.58053291
1.5171756 1.0815105 0.63050085
1.4612563 1.0081828 -2.525331
1.495423 1.0175445 -2.5276961
2.9988663 1.0052927 -2.5232875
3.0324359 1.0213478 -2.5244689
1.4521354 1.0173955 -2.4856188
1.5064478 1.0153114 -2.4855266
1.5443949 1.0138104 -2.4812555
2.9939001 1.0158732 -2.4816849
3.0503321 1.0154179 -2.4871297
3.0848122 1.0161562 -2.4792166
1.461651 1.0114279 -2.4413552
1.4955077 1.0136361 -2.442399
2.999676 1.0213053 -2.4391775
3.039079 1.0219387 -2.4340937
3.0445895 1.0021156 -1.9616733
1.4550554 1.0167307 -1.9102027
1.5028503 1.0164155 -1.9160404
1.5457716 1.0177902 -1.9023197
3.0040586 1.0111905 -1.9111207
3.0437527 1.0150018 -1.9250865
3.0940068 1.0135432 -1.9211501
1.4548485 1.0119373 -1.8694704
1.5028199 1.0194255 -1.8663548
1.5448583 1.0143862 -1.8765327
3.0060449 1.0048058 -1.886073
3.0379725 1.0221307 -1.8817241
3.0872424 1.0159174 -1.878675
1.5321152 1.00668 -1.0543101
1.5649272 1.0212299 -1.0535197
1.5264368 1.0192105 -1.0126228
1.5693195 1.0191392 -1.0118376
1.6123827 1.0319953 -0.99942273
1.5330237 1.0167502 -0.97557598
1.5646031 1.0212796 -0.9751606
1.4639149 0.98180556 0.55634898
1.4995636 1.0205286 0.55310321
1.5607729 1.0117682 0.55624753
3.0063875 1.0249269 0.55424172
3.0405736 1.0452703 0.5095188
3.1008325 1.0149232 0.54374152
1.4626342 1.020485 0.58360362
1.527158 1.0272632 0.59388882
1.5751096 1.0431312 0.55047101
3.0062644 1.049334 0.56731087
3.0335333 1.0338081 0.58288717
3.0966868 1.01581 0.58209723
1.5129102 1.0057108 0.63057244
1.4601215 0.93859082 -2.5248899
1.4937847 0.94699734 -2.5287285
3.0070198 0.94595331 -2.5265105
3.0362256 0.94744325 -2.5241539
1.4526068 0.94532943 -2.4834843
1.5077238 0.94514388 -2.4862621
1.5436201 0.9481191 -2.4862304
2.9940243 0.94288194 -2.4835224
3.0522428 0.9447512 -2.4865303
3.0854702 0.94643915 -2.4791067
1.4567453 0.95035887 -2.4426386
1.4934466 0.95528454 -2.4361222
2.997298 0.94206327 -2.4402275
3.0400262 0.95213169 -2.4352539
3.0457113 0.94816661 -1.9618082
1.4570022 0.94613284 -1.9118389
1.5056155 0.94418097 -1.9135646
1.5463835 0.94959158 -1.9072737
3.0030327 0.94522864 -1.9091038
3.0448089 0.94479883 -1.9258167
3.093977 0.9449048 -1.9226549
1.4563735 0.94361842 -1.8693422
1.5093066 0.94731116 -1.8466449
1.5431938 0.95468092 -1.8708844
3.0073781 0.92367518 -1.8836075
3.0489566 0.95389241 -1.8547435
3.0834775 0.97988403 -1.7803243
1.5329427 0.94390446 -1.0537791
1.557562 0.94961172 -1.0536327
1.5260115 0.94773179 -1.0113064
1.5808313 0.94805604 -0.9977926
1.6144837 0.94311291 -1.0178871
1.5350466 0.94263577 -0.97509414
1.6020294 0.9754951 -1.0064733
1.4968488 0.94752568 0.55224085
1.555478 0.94347668 0.5530827
3.0072045 0.96076423 0.54030389
3.0483804 0.94392514 0.54267186
3.1014609 0.94498485 0.54270756
1.4625219 0.94092429 0.58318043
1.5131513 0.94626522 0.59561521
1.5784389 0.97745585 0.54670596
3.0064983 0.93408495 0.56623596
3.0353894 0.96509081 0.58157343
3.0966156 0.94736153 0.582762
1.5125375 0.93579888 0.63048488
1.4613198 0.87349236 -2.5256429
1.4964496 0.87572336 -2.5270982
3.0010288 0.86430138 -2.5243702
3.0355546 0.87684292 -2.5246766
1.4532158 0.87487125 -2.4840577
1.5071903 0.87327904 -2.4843082
1.6297197 0.9244746 -2.4699078
2.9946823 0.87532121 -2.4831955
3.0501158 0.87396336 -2.4861681
3.0852323 0.87718147 -2.4752152
1.4628584 0.883331 -2.4429493
1.517594 0.88724709 -2.4400041
2.9982529 0.87818515 -2.4401407
3.0273204 0.88393903 -2.4361384
3.0839512 0.88867253 -2.4490852
3.0476363 0.87787372 -1.9611211
1.4558076 0.87488723 -1.9125354
1.5049077 0.87514788 -1.9156213
1.5480915 0.87770545 -1.9046547
3.0029242 0.87681556 -1.9087893
3.0458989 0.87628967 -1.9239104
3.0941801 0.87575799 -1.9186929
1.455405 0.87210387 -1.8704178
1.5221071 0.88557398 -1.8308135
1.6179428 0.94599116 -1.6968721
3.0057633 0.87713248 -1.8839977
3.035342 0.88192159 -1.8535178
3.0298951 0.91201746 -1.783695
1.5377816 0.87658 -1.0535754
1.5682546 0.87810379 -1.0533105
1.5267884 0.87522531 -1.0106527
1.5762125 0.88764942 -1.0246539
1.6130368 0.87808973 -1.0219092
1.5315311 0.87972927 -0.97647667
1.5640587 0.87408739 -0.9743734
1.4961835 0.87735569 0.55241448
1.5601977 0.87219781 0.55552459
3.007782 0.88396311 0.55036598
3.0481217 0.88284433 0.54240853
3.1003988 0.87346947 0.54113317
1.4626426 0.86832637 0.58371323
1.5082164 0.88132936 0.59556484
1.5791637 0.91013414 0.54338408
3.0484977 0.88085568 0.58307475
3.0963225 0.87798458 0.58047605
1.5182238 0.87744522 0.630674
1.4607096 0.81044763 -2.5266852
1.4937501 0.80637389 -2.5276241
3.0024929 0.79527092 -2.5241175
3.0344267 0.80794132 -2.5243931
1.4535055 0.80611902 -2.4847195
1.5052165 0.81424516 -2.4860599
1.5444521 0.80570716 -2.4859388
2.9936581 0.8079046 -2.4844444
3.0510418 0.80449569 -2.4868186
3.085027 0.80584306 -2.477752
1.4591122 0.80309182 -2.4431915
1.4976231 0.8029924 -2.4419515
2.9982626 0.80815446 -2.4407601
3.0391204 0.81505954 -2.4374092
3.0837731 0.80945253 -2.4417567
3.0397909 0.8013745 -1.9616886
1.4565808 0.80387783 -1.911103
1.5041409 0.80636889 -1.9162586
1.5448021 0.80279607 -1.9080117
3.0030231 0.80546093 -1.9132621
3.0456769 0.80527347 -1.9253272
3.0927904 0.80580544 -1.9222096
1.4570415 0.80418503 -1.8679601
1.5029142 0.81211936 -1.8494689
1.5457659 0.80230367 -1.8760102
3.005465 0.81389862 -1.8836279
3.0326445 0.81120002 -1.8566716
3.0894089 0.79891968 -1.876532
1.5331928 0.80650967 -1.0537992
1.5615104 0.79725105 -1.0539945
1.5436537 0.808523 -1.0273252
1.5873874 0.81303751 -1.0244097
1.6119545 0.79735857 -1.027349
1.5348117 0.80816615 -0.97559649
1.5649432 0.81173801 -0.97472781
1.4678952 0.82192159 0.55432218
1.4951061 0.7983976 0.55274606
1.5564356 0.79742825 0.55138904
3.0052917 0.79274172 0.55487537
3.0492582 0.83078122 0.54149669
3.1006076 0.79937446 0.5422681
1.464221 0.8030076 0.58177829
1.5087044 0.80817795 0.59499586
1.5558035 0.80498791 0.59448254
3.0066862 0.82151908 0.5651477
3.0407364 0.82566315 0.55874759
3.0964339 0.80720055 0.5796752
1.5160265 0.8090257 0.63065434
1.4593172 0.72798771 -2.5247123
1.4925863 0.73723638 -2.5287187
3.0032566 0.72667754 -2.525197
3.0341818 0.73611391 -2.5242088
1.4510387 0.73603952 -2.4861288
1.5056884 0.73488075 -2.4875367
1.5450509 0.74367923 -2.4843614
2.9936354 0.7363041 -2.4826951
3.0488582 0.73953998 -2.4873512
3.0856047 0.73353302 -2.4787502
1.4594694 0.74148935 -2.4426811
1.5116097 0.74583519 -2.4423265
2.9969068 0.73001027 -2.4411464
3.0331948 0.74348539 -2.4380739
3.0366211 0.72791743 -1.9614573
1.4565681 0.73512816 -1.9087154
1.5050811 0.73424613 -1.9155012
1.5478504 0.73575872 -1.9036065
3.0040026 0.73458856 -1.9153098
3.0465164 0.73521811 -1.9236867
3.09413 0.73354155 -1.9197329
1.456611 0.73520929 -1.8692182
1.5128534 0.74119824 -1.8486193
1.5447351 0.72985429 -1.8733038
3.0074151 0.73764795 -1.8860493
3.0484169 0.74403161 -1.8571141
3.0888982 0.73812467 -1.8785449
1.5312551 0.73753273 -1.0527788
1.5699006 0.73933625 -1.0538085
1.5271815 0.73934281 -1.0226539
1.569441 0.73648036 -1.0079558
1.6148845 0.74312359 -1.0167547
1.5345155 0.73048568 -0.97524285
1.6079849 0.76898009 -1.0056355
1.4598522 0.76242429 0.55945653
1.4975792 0.72861207 0.55387682
1.5566733 0.73384953 0.5509454
3.0079484 0.72817254 0.55065757
3.0466487 0.73660213 0.54126579
3.1017015 0.73314267 0.54254752
1.4629675 0.72965515 0.57869887
1.5108416 0.74130213 0.59666729
1.5549031 0.73453218 0.59511077
3.0068295 0.71154696 0.56404644
3.0450366 0.7637853 0.55998015
3.0960138 0.73640656 0.58114612
1.5170008 0.73692137 0.63049453
1.4629813 0.66914654 -2.5270648
1.4952971 0.6616084 -2.5279026
2.9976966 0.64795572 -2.5225232
3.0350118 0.66518348 -2.5242004
1.4527655 0.66652131 -2.4844584
1.5077893 0.66745061 -2.4876614
1.5443716 0.6678043 -2.478833
2.9938741 0.66607094 -2.4820499
3.0500035 0.66507566 -2.4856861
3.0856438 0.66295129 -2.4786241
1.4608592 0.66454899 -2.4422543
1.505908 0.67920947 -2.441927
2.9991996 0.66299784 -2.4418688
3.0301278 0.67451674 -2.4373815
3.0826347 0.65264946 -2.441555
3.0446665 0.67192525 -1.961756
1.4561999 0.66459441 -1.9080459
1.5044653 0.6657238 -1.9149684
1.5491062 0.6679793 -1.903176
3.0037673 0.66713405 -1.9112267
3.0452609 0.66412562 -1.9253308
3.0938742 0.66341794 -1.9194067
1.4590815 0.66563553 -1.8678529
1.5015296 0.6715216 -1.8490535
1.5466558 0.66428316 -1.8689474
3.0077431 0.68174297 -1.884106
3.0480654 0.6643284 -1.8750366
3.0278721 0.7035535 -1.7960759
1.5360535 0.67023063 -1.0539465
1.5633529 0.65688437 -1.0525007
1.527198 0.66608673 -1.0126346
1.5715518 0.66957229 -1.0064597
1.612517 0.66208619 -1.0148666
1.5355284 0.66492742 -0.97514343
1.5661677 0.66328365 -0.97470766
1.4671799 0.66653591 0.55877304
1.5000192 0.65894932 0.5514133
1.5463669 0.66912854 0.55199426
3.0065954 0.65750545 0.55333149
3.0508451 0.66842818 0.5404169
3.1017895 0.66224384 0.54301029
1.4641743 0.65898448 0.58200377
1.5138432 0.67239296 0.59720832
1.5550655 0.66836959 0.59402043
3.0441175 0.67348331 0.58271259
3.096611 0.66478783 0.58159631
1.5187664 0.66148579 0.6306749
1.4614731 0.59620774 -2.5261393
1.4954443 0.59724265 -2.5275168
3.0066335 0.58342403 -2.5240405
3.034816 0.59641528 -2.5241046
1.4525092 0.5971483 -2.48454
1.507044 0.59639376 -2.4881775
1.5453537 0.59263211 -2.4876635
2.993181 0.59540576 -2.4807167
3.0514226 0.59436446 -2.4869256
3.0853753 0.5967195 -2.4782584
1.4590827 0.59836447 -2.443958
1.4971818 0.60530227 -2.4422493
2.9996185 0.59254366 -2.4390185
3.0233352 0.60386455 -2.4375074
3.0802677 0.60926396 -2.4386635
3.0452368 0.59697932 -1.9614394
1.4564992 0.59720534 -1.9099438
1.5036578 0.59414244 -1.9151098
1.5455331 0.59240794 -1.9070269
3.0039582 0.59508955 -1.9120537
3.0445724 0.59581399 -1.9247636
3.0936751 0.59580332 -1.9217687
1.4576595 0.59402114 -1.8702646
1.5217406 0.60359943 -1.8525484
1.545459 0.59123635 -1.8743234
3.0080903 0.59278369 -1.8816731
3.0474641 0.60411555 -1.8659071
3.0842204 0.64674312 -1.7914239
1.5351952 0.59275293 -1.0538297
1.5638642 0.59393287 -1.0529968
1.5273087 0.60145438 -1.0302234
1.568188 0.60092181 -1.0058407
1.6135827 0.58665425 -1.0177741
1.5341339 0.60913497 -0.97611195
1.5824198 0.61953849 -1.0011703
1.4652094 0.59668726 0.54923373
1.5006793 0.59100831 0.55138475
1.5514117 0.62045753 0.54380929
3.0069027 0.57422948 0.54712814
3.0293965 0.62220955 0.50886869
3.0997264 0.59372085 0.54525292
1.4638402 0.58640158 0.58315802
1.5154837 0.60416561 0.59685588
1.5546364 0.59618849 0.59535909
3.0070097 0.60412669 0.56300831
3.0438831 0.61105061 0.5838713
3.0959136 0.59689569 0.58202487
1.5119605 0.59614569 0.63069844
1.4595149 0.52281076 -2.5259528
1.4931537 0.52754462 -2.5274427
2.9973695 0.53352344 -2.5221658
3.0353432 0.52515012 -2.5244911
1.4521618 0.52531093 -2.4849255
1.5070286 0.52598578 -2.4845853
1.5436159 0.52569067 -2.4830763
2.9946146 0.52361763 -2.4828835
3.0509295 0.52520072 -2.4851911
3.0852237 0.52154237 -2.4761024
1.4626669 0.52713239 -2.4400392
1.5109771 0.54025465 -2.4427357
1.5420405 0.51091814 -2.4493418
3.0026102 0.52550036 -2.4386601
3.0339713 0.53538489 -2.4375391
3.0440073 0.53768826 -1.9613167
1.4572859 0.52391058 -1.9095069
1.5044163 0.52442139 -1.9157588
1.5474375 0.5244602 -1.9051412
3.0038769 0.52377421 -1.9118009
3.0440114 0.52402049 -1.9248745
3.0939193 0.52738476 -1.9194796
1.4863465 0.52777916 -1.8708904
1.5237451 0.52590978 -1.8658136
1.5447611 0.59446841 -1.7696214
3.007194 0.52243429 -1.8819963
3.0466485 0.53450644 -1.8607084
3.0868409 0.52669406 -1.8760338
1.5329853 0.53034419 -1.0539646
1.5574349 0.51839125 -1.0534292
1.5272237 0.53256005 -1.0228772
1.5726455 0.54115337 -1.0240939
1.6122931 0.53570414 -1.0011748
1.5347954 0.51989943 -0.97692078
1.5645775 0.51929981 -0.97486556
1.4680841 0.51309818 0.55863643
1.499325 0.52049977 0.55127573
1.5587474 0.53587663 0.55178952
3.0079472 0.50633687 0.54029953
3.0470188 0.52561849 0.54203975
3.1020277 0.52567595 0.544384
1.4625618 0.5263108 0.58376187
1.5119717 0.53151178 0.59663498
1.5543505 0.52245551 0.59648752
3.0072246 0.49916813 0.56203115
3.0499315 0.53259063 0.58201349
3.0969782 0.52385253 0.58108574
1.5110192 0.53557217 0.63065952
1.4629682 0.45704848 -2.5248172
1.4928911 0.45334673 -2.529177
3.0009313 0.44998711 -2.5239589
3.0326958 0.45171285 -2.524528
1.4528869 0.45537147 -2.4843521
1.5071061 0.45712778 -2.4854341
1.5645998 0.52507126 -2.4834011
2.9937017 0.45528999 -2.4833848
3.0505197 0.4562194 -2.4875214
3.08481 0.4523629 -2.4803903
1.4612994 0.45300478 -2.442389
1.5026671 0.47343957 -2.4435062
2.9981112 0.45189166 -2.4426863
3.0286419 0.46708584 -2.438797
3.0846906 0.47107217 -2.4486258
3.0453997 0.45388022 -1.9613183
1.4567651 0.45638818 -1.9084649
1.5032849 0.45557502 -1.9164271
1.5486355 0.45143768 -1.9081832
3.0033197 0.45232409 -1.9143815
3.0453279 0.45358205 -1.9241644
3.0933468 0.45814741 -1.9206163
1.459235 0.45617253 -1.851902
1.5228255 0.47071299 -1.8356749
1.5461477 0.45373559 -1.8773493
3.0077574 0.45691323 -1.8850057
3.0227964 0.46501547 -1.8068478
3.0883241 0.45419842 -1.8776149
1.5335101 0.46389538 -1.0532435
1.5696591 0.4563193 -1.0545934
1.5286131 0.45728245 -1.0115491
1.5876724 0.46542469 -1.0174729
1.615026 0.44642153 -1.0175668
1.5379022 0.44297779 -0.97702813
1.5677189 0.45529515 -0.97491378
1.4680959 0.44040129 0.55500191
1.5031443 0.44510612 0.55211616
1.5551065 0.45445448 0.55862278
3.0084035 0.45198917 0.5440442
3.0466833 0.45484909 0.54236102
3.0991151 0.4554843 0.54251164
1.462139 0.4568691 0.58181363
1.5076338 0.46447206 0.59790248
1.5538524 0.45675755 0.59567356
3.0502005 0.4712891 0.56069988
3.0958748 0.45457551 0.57973182
1.5106256 0.46580964 0.63065523
1.4604859 0.37966904 -2.5251176
1.4943815 0.38758606 -2.5277703
3.0059102 0.38523719 -2.5227156
3.0354071 0.38659945 -2.5243285
1.4526241 0.38536599 -2.4848115
1.508258 0.38496453 -2.4860892
1.5448036 0.38340428 -2.482852
2.9938426 0.38452175 -2.4824476
3.0503738 0.391828 -2.4865179
3.0845425 0.38409424 -2.4787364
1.4608803 0.38330567 -2.4439082
1.5150805 0.4030523 -2.4430926
2.9999144 0.38536531 -2.4413259
3.0360096 0.39890197 -2.4384325
3.0817301 0.38615322 -2.4431467
3.0373373 0.38169533 -1.9607044
1.4557384 0.38707173 -1.9093264
1.5031174 0.38335598 -1.9159696
1.5503194 0.38398221 -1.9043734
3.0085082 0.38775051 -1.9348489
3.0472641 0.38450372 -1.9253519
3.0942252 0.38477477 -1.9206591
1.4583167 0.38143227 -1.8718555
1.5126489 0.39505109 -1.826786
1.5462685 0.38518992 -1.8749287
3.0082664 0.38861802 -1.8858409
3.0078864 0.39843413 -1.8458164
3.0894606 0.38562429 -1.8796712
1.5326736 0.3872619 -1.0526899
1.5581664 0.37313396 -1.0548598
1.5281773 0.38628131 -1.0116024
1.5703146 0.3871626 -1.0010403
1.6128843 0.39513439 -1.010746
1.5355968 0.37789744 -0.97682792
1.5678331 0.42026505 -1.0025315
1.4596539 0.40233928 0.55984509
1.4982402 0.38553339 0.55194026
1.5615383 0.39807889 0.55140042
3.009975 0.38569984 0.54687428
3.0472322 0.38384688 0.5419364
3.1004174 0.38537899 0.5425874
1.4663063 0.37925035 0.58957988
1.5141866 0.39892274 0.59766549
1.5555663 0.38451776 0.59323716
3.007493 0.39659533 0.56113112
3.0205927 0.41330537 0.51368582
3.0963905 0.38644302 0.58040339
1.5129194 0.37459379 0.63068146
1.4613296 0.31191483 -2.5257008
1.4917407 0.32102272 -2.5270965
3.0030549 0.32169861 -2.5248199
3.0326228 0.31637916 -2.5241969
1.4522862 0.31447977 -2.4847178
1.5069395 0.3157517 -2.4847131
1.5457382 0.31487843 -2.4870152
2.9937918 0.31641519 -2.4823949
3.0508914 0.31459904 -2.4857597
3.0844877 0.31529257 -2.4813807
1.4618018 0.30817765 -2.4443967
1.5045521 0.33452365 -2.4430904
3.0010984 0.319152 -2.4395435
3.0314572 0.32981429 -2.4387395
2.6974797 0.77845222 -2.4701681
3.0426385 0.30435437 -1.9616531
1.4581043 0.31641951 -1.9110062
1.5048714 0.31351057 -1.9138519
1.5501547 0.31594041 -1.9039351
3.0041251 0.31613776 -1.915116
3.0454538 0.31577757 -1.9265444
3.093399 0.31517863 -1.9201856
1.4600339 0.31336045 -1.871261
1.5104451 0.32781813 -1.8551826
1.5457038 0.31570759 -1.8716824
3.0065408 0.30588901 -1.8859937
3.0369916 0.31531718 -1.876345
3.0878797 0.37632081 -1.820125
1.5333863 0.31590602 -1.0528398
1.5617727 0.30320686 -1.052525
1.5290278 0.32027462 -1.0131712
1.5858327 0.32443741 -0.99090439
1.6128452 0.30906343 -1.0122194
1.5363702 0.3198294 -0.97780609
1.5701015 0.31629679 -0.97567701
1.5007306 0.31609687 0.55251288
1.5649815 0.30902115 0.5539245
3.0094914 0.33848014 0.5439567
3.0498872 0.31512347 0.54214793
3.102484 0.31374234 0.54388231
1.4624404 0.31325799 0.5802334
1.5165561 0.32581753 0.59757179
1.5548406 0.31459478 0.59430844
3.0061049 0.29073426 0.56051409
3.0458455 0.32455623 0.56175858
3.0962636 0.31484577 0.58039385
1.50835 0.30519277 0.63037181
1.4602721 0.2454353 -2.5259573
1.4880829 0.24684481 -2.5283406
3.0066292 0.24125893 -2.5262566
3.0309975 0.24259444 -2.5241735
1.4526328 0.24375884 -2.4846282
1.5040551 0.2450937 -2.4866967
1.5470215 0.24330872 -2.4754806
2.9935083 0.24411592 -2.4842176
3.0526218 0.24358526 -2.486515
3.0861015 0.24215378 -2.4759135
1.4591833 0.23607908 -2.4419408
1.495289 0.26802579 -2.3542988
2.9428558 0.24779229 -2.3337448
3.0401304 0.2657963 -2.396147
3.0823724 0.24717735 -2.4366686
3.0399845 0.23194045 -1.9613476
1.4578404 0.24669044 -1.9088647
1.5030695 0.24476624 -1.9171674
1.5468795 0.2438864 -1.9042114
3.0026059 0.24775666 -1.9138972
3.0460215 0.25330374 -1.9145834
3.0932877 0.24514784 -1.9201599
1.4590056 0.246042 -1.8717818
1.5115178 0.25592744 -1.8522191
1.5470079 0.24555925 -1.8739218
3.0081041 0.23070759 -1.8859432
3.0359883 0.25137937 -1.853389
3.0173504 0.30161887 -1.8191617
1.5365084 0.24448346 -1.0535053
1.5700384 0.24960466 -1.0528066
1.528805 0.2438105 -1.0102068
1.5867313 0.25525653 -1.0234705
1.6151297 0.24323916 -1.011595
1.5366809 0.26108044 -0.97662956
1.5689808 0.24481206 -0.97460836
1.4631299 0.25733975 0.55693614
1.4959919 0.23943898 0.55233663
1.5719705 0.21582422 0.54648852
3.0441203 0.2438882 0.54224455
3.1012039 0.24354947 0.5445168
1.4651316 0.24473485 0.58127183
1.5200986 0.25989026 0.58663642
1.5539674 0.24888617 0.59318358
3.0387297 0.26355523 0.54248112
3.0972347 0.24766435 0.58055663
1.5128977 0.25244546 0.63069963
1.4612643 0.17167033 -2.5257611
1.4901282 0.17234086 -2.5277433
1.5950223 0.14271091 -2.5232315
1.6559578 0.14183258 -2.524477
1.7172047 0.14091574 -2.5256834
1.8655788 0.14693807 -2.5202236
1.9349579 0.14397089 -2.5208418
1.9896147 0.14298342 -2.5210238
2.0641491 0.14256977 -2.5211711
2.136497 0.14251433 -2.5219257
2.1996431 0.14219588 -2.5222876
2.2650487 0.14380731 -2.5219512
2.3350835 0.14450556 -2.5207381
2.4100933 0.14375566 -2.5209937
2.4832253 0.14391576 -2.5215604
2.5470257 0.14354871 -2.5218904
2.6109662 0.14314467 -2.522171
2.6880715 0.14263649 -2.5219455
2.7742746 0.14241688 -2.5205162
2.8370957 0.14236949 -2.5204809
2.8999212 0.14231043 -2.5204368
2.9865396 0.15964527 -2.5213544
3.037467 0.16791683 -2.5241251
1.4522734 0.17419775 -2.4866328
1.5061446 0.17449848 -2.487185
1.5603937 0.15935023 -2.4808199
1.6413161 0.14678538 -2.4865873
1.7160094 0.14662796 -2.4830544
1.7846557 0.14741793 -2.4824457
1.8548014 0.14776161 -2.4824097
1.9274781 0.14753102 -2.4821663
1.9968237 0.14769089 -2.4785409
2.0665624 0.14818802 -2.4778759
2.136169 0.14876348 -2.4790142
2.2062716 0.1495447 -2.4824893
2.2756031 0.14941218 -2.480473
2.3457353 0.15011379 -2.4763439
2.4145381 0.1510293 -2.477576
2.485625 0.15132014 -2.4826488
2.5562139 0.15137503 -2.4855988
2.6238692 0.15130043 -2.4819095
2.6937428 0.15324351 -2.4808922
2.7641566 0.15269609 -2.4779098
2.8353324 0.151599 -2.4809477
2.9083798 0.15291838 -2.4780655
2.9734683 0.16949749 -2.4823475
3.050838 0.17410402 -2.4855196
3.0853407 0.1754735 -2.4837697
1.4649224 0.16257839 -2.4334762
1.5044632 0.18546839 -2.4027205
1.6661371 0.14104508 -2.4459264
1.726146 0.1448171 -2.4454453
1.7752509 0.14129858 -2.4428895
1.8597711 0.1455227 -2.4465909
1.918355 0.14244783 -2.4458554
1.9886677 0.14632232 -2.4447694
2.0525649 0.14597352 -2.4437673
2.136869 0.14417 -2.4440408
2.2008069 0.14522076 -2.4444692
2.2843201 0.1443425 -2.4440236
2.3395393 0.14611748 -2.4429026
2.4193466 0.14605103 -2.447051
2.4818254 0.14539877 -2.4451542
2.5553491 0.14329545 -2.4404051
2.6065466 0.1462602 -2.4434104
2.6850734 0.14895757 -2.4415162
2.7625048 0.14911956 -2.4419305
2.8394275 0.14949186 -2.4386592
2.8983107 0.15034571 -2.4399402
2.9906285 0.16285625 -2.4330468
3.0317912 0.18021615 -2.4056838
3.0841372 0.16386418 -2.4303703
1.4632034 0.14463538 -2.3432996
1.494723 0.14648695 -2.3451419
3.0010054 0.15069585 -2.3483353
3.0430341 0.15393934 -2.3455906
3.0876114 0.14099084 -2.3543196
1.4619204 0.14498578 -2.2867579
1.4978195 0.14573541 -2.2745256
3.0051262 0.15494962 -2.2773914
3.0448213 0.15334907 -2.2767353
1.465072 0.14410731 -2.2078972
1.4975238 0.14779434 -2.2041547
3.0028663 0.15162425 -2.2103577
3.044981 0.15380433 -2.2042553
3.0828776 0.14831939 -2.1983023
1.4585924 0.14201245 -2.1601744
1.4955875 0.14702821 -2.1365788
3.0049 0.15322946 -2.129185
3.0445826 0.15461093 -2.1344948
3.0903375 0.14230415 -2.1438928
1.4665604 0.14700902 -2.0578682
1.496538 0.14706281 -2.0636225
3.0007989 0.14862148 -2.0731871
3.0422049 0.15552089 -2.0674138
3.0825505 0.14454453 -2.0834684
1.4646956 0.14284006 -2.0005486
1.4957211 0.14818726 -1.9960469
3.0041511 0.15037772 -1.9962971
3.0428085 0.15561961 -1.9977744
3.0844965 0.14360213 -2.0007718
1.4579796 0.17168044 -1.9109552
1.5061713 0.17061359 -1.9198319
1.5636942 0.16231814 -1.9088213
1.6439551 0.15084012 -1.9082078
1.7147821 0.14944439 -1.9089496
1.7803539 0.15014668 -1.9104925
1.8550403 0.15271157 -1.9109203
1.9239473 0.15017582 -1.9108483
1.9952552 0.14979888 -1.9118779
2.062355 0.15155226 -1.9142271
2.1329458 0.15305905 -1.9096696
2.2045441 0.15219241 -1.9132283
2.2773435 0.15336928 -1.9133258
2.3503041 0.15258431 -1.9138612
2.4179533 0.15333857 -1.9161189
2.4839566 0.15405065 -1.9141891
2.5557225 0.15279175 -1.9188687
2.6261435 0.15406452 -1.9178309
2.6954417 0.15420932 -1.918044
2.7672665 0.15536249 -1.9191762
2.8378053 0.15625767 -1.9162663
2.9059792 0.15739794 -1.9203708
2.9810028 0.16108149 -1.9208484
3.0451095 0.17245403 -1.9270746
3.0931127 0.17226832 -1.9207067
1.4598017 0.17696704 -1.8722872
1.511521 0.18731666 -1.831176
1.5978192 0.19772878 -1.8431458
1.6471965 0.14565627 -1.8701316
1.7146063 0.1465406 -1.8701938
1.7898619 0.14959249 -1.8762956
1.8548684 0.14833976 -1.8744318
1.9224583 0.14909598 -1.8766998
1.9956484 0.14941519 -1.8732085
2.0645199 0.14942202 -1.8749908
2.1386809 0.14895797 -1.8717349
2.2080836 0.14715713 -1.8718657
2.2796097 0.1499898 -1.8726677
2.3483968 0.15038887 -1.870792
2.4089885 0.15140629 -1.873991
2.4851012 0.15117332 -1.8745192
2.5569088 0.15279064 -1.878562
2.6265702 0.15230487 -1.8800085
2.6895266 0.15174398 -1.8763746
2.762933 0.15082593 -1.8748597
2.8352919 0.15132223 -1.8760933
2.9014716 0.14999139 -1.872867
2.9820402 0.15370554 -1.8643199
3.0359285 0.1802672 -1.8593047
3.091764 0.1741953 -1.8756559
1.4668255 0.14567678 -1.7886108
1.5018188 0.14711846 -1.7867298
3.0005212 0.14795069 -1.7810464
3.0447476 0.15789807 -1.7885827
3.082768 0.14954351 -1.7763435
1.4630483 0.1434257 -1.7198035
1.4997594 0.14747828 -1.7135843
3.0069273 0.14831917 -1.7131819
3.0403936 0.1558015 -1.7121069
3.085515 0.14681618 -1.7129923
1.4674469 0.14549471 -1.6292763
1.4974281 0.14735882 -1.6417603
3.0058682 0.14935714 -1.6460181
3.0421202 0.15634979 -1.6449951
3.086206 0.1481242 -1.6382802
1.4641211 0.14352927 -1.5827917
1.4991806 0.14808983 -1.5789847
3.0054944 0.14679034 -1.5822086
3.0449419 0.15625757 -1.5748036
3.0862684 0.14927912 -1.5828788
1.4638964 0.14079493 -1.5231407
1.4989489 0.14767972 -1.5035779
3.0022359 0.14732 -1.5068547
3.0453072 0.15821801 -1.5051121
3.0891938 0.15021259 -1.4992791
1.4664172 0.1444129 -1.4424562
1.500295 0.14723858 -1.4362736
3.0037661 0.14931642 -1.4320312
3.0473478 0.15818051 -1.4343307
3.0920162 0.14555365 -1.4282535
1.4647945 0.14183134 -1.3677959
1.5025905 0.14780764 -1.3650662
1.5444902 0.14098841 -1.3758134
3.0039279 0.14438027 -1.3695629
3.0453637 0.15752167 -1.3636726
3.0939357 0.14963245 -1.369363
1.5011508 0.14796591 -1.297886
1.5409328 0.14016443 -1.2639602
3.0067408 0.14834127 -1.2885829
3.0477388 0.15817188 -1.2935748
3.0918038 0.14996177 -1.2918066
1.4667999 0.14614379 -1.2281103
1.5043285 0.14667486 -1.2277368
3.005497 0.1514625 -1.2194967
3.0457222 0.15869053 -1.2267673
3.0883274 0.14821865 -1.2176753
1.4664181 0.14401205 -1.1567739
1.502038 0.14875031 -1.161991
1.5436716 0.14015655 -1.1457646
3.0040882 0.15014629 -1.1552702
3.0416279 0.15754373 -1.1567169
3.0914197 0.14794701 -1.1526421
1.4609873 0.14099656 -1.1132978
1.5046362 0.14841156 -1.0811557
1.5577805 0.16235022 -1.0615937
3.0045285 0.15135291 -1.0799825
3.0454957 0.1561448 -1.0843327
3.0942156 0.14968063 -1.0826313
1.464568 0.14362268 -1.0296004
1.5192909 0.17087571 -1.0133014
1.577355 0.18971193 -1.012073
1.614683 0.17006852 -1.0116944
3.0010569 0.14588 -1.0222354
3.0444191 0.15827787 -1.0154614
3.0968115 0.14720348 -1.0204301
1.5016813 0.14810342 -0.94783801
1.5673023 0.17552052 -0.97511119
3.0023201 0.14960772 -0.94795203
3.0463324 0.15684651 -0.94684577
3.0970061 0.1475237 -0.94475245
1.4678489 0.14480592 -0.87626123
1.5053881 0.14764677 -0.87389356
3.0069301 0.14781557 -0.87205565
3.047096 0.15844843 -0.87373561
3.0923634 0.14737174 -0.87834579
1.4668137 0.14342484 -0.79282987
1.5071154 0.14965026 -0.80774552
3.0055447 0.14674228 -0.79975599
3.0498631 0.15679814 -0.80195135
3.0930724 0.15179572 -0.80549377
1.4656705 0.14388463 -0.72191298
1.5066134 0.14757071 -0.73313963
1.5492431 0.14038876 -0.72929609
3.0063722 0.15235144 -0.71932614
3.0459905 0.1564696 -0.73275918
3.0932186 0.15411757 -0.732234
1.4659544 0.14474019 -0.65503097
1.5049689 0.14787516 -0.66587758
1.5487195 0.14133576 -0.65776706
3.0051854 0.14924553 -0.67043161
3.048624 0.15807553 -0.66663653
3.090488 0.15339927 -0.66660547
1.4659178 0.14157172 -0.60577649
1.5076021 0.14794391 -0.59523284
1.5481571 0.14218685 -0.58592725
3.0046751 0.14595982 -0.62081188
3.0461237 0.15900943 -0.5968172
3.093843 0.15048289 -0.59933347
1.4691534 0.140687 -0.49645615
1.5045644 0.14830916 -0.5227496
1.5475621 0.14295605 -0.51383269
3.0012167 0.14458889 -0.53329825
3.0460052 0.1590734 -0.52338862
3.0935805 0.15318196 -0.52957278
1.5059521 0.1497795 -0.4547545
1.5471885 0.1435367 -0.46562874
3.0072982 0.14569755 -0.46104336
3.0487757 0.15657559 -0.4557952
3.0914831 0.15538418 -0.45536146
1.4689251 0.14567401 -0.39639568
1.5073237 0.14764987 -0.38311407
1.5468273 0.14359827 -0.38302261
3.0080428 0.14797664 -0.37245214
3.0463307 0.15738295 -0.38729796
3.0931542 0.15681441 -0.38561943
1.4673651 0.14496239 -0.30884188
1.5095137 0.14761157 -0.3156527
1.5442592 0.14354666 -0.3122192
3.0061209 0.14745142 -0.31343758
3.0495477 0.15864712 -0.31603456
3.0976689 0.1554068 -0.31565613
1.4668578 0.14338209 -0.24088711
1.5107466 0.14779265 -0.24227007
1.5458558 0.1488509 -0.24088462
3.0057199 0.14377274 -0.24307543
3.0473254 0.15694544 -0.24300693
3.0922763 0.15644582 -0.23992901
1.4664897 0.14308895 -0.17369342
1.5105988 0.14818299 -0.17784983
1.5486453 0.14363694 -0.16091974
3.007355 0.14875077 -0.17078799
3.0519891 0.15818986 -0.17409351
3.093163 0.1540643 -0.17187478
1.4695095 0.14173627 -0.13248467
1.5129735 0.14932032 -0.10911981
1.5451368 0.14602801 -0.10615724
3.0072603 0.15286815 -0.11325634
3.047689 0.1577743 -0.10901766
3.0939605 0.15461305 -0.10087619
1.4664375 0.14480335 -0.017622823
1.5093074 0.14849505 -0.033652399
1.5481234 0.14429952 -0.028874591
3.0080268 0.14526618 -0.043619685
3.0518391 0.15842085 -0.039566442
3.0930524 0.15462698 -0.032877062
1.4617873 0.14040589 0.029602772
1.5080763 0.14941642 0.034764122
1.5485063 0.14613342 0.0349603
3.0067787 0.14298546 0.0030019346
3.0487621 0.15590592 0.032287337
3.0945914 0.1561728 0.034393728
1.5112904 0.14858732 0.10449576
1.5457107 0.14894372 0.097470589
3.0543485 0.1591107 0.10363017
3.0968225 0.15648966 0.10446
1.508633 0.14789093 0.17510255
1.543907 0.14734568 0.17859089
3.0537531 0.15904249 0.1751671
3.0985606 0.15257831 0.17629203
1.4693031 0.14373647 0.25285184
1.5085267 0.14789884 0.24380106
1.542824 0.15337411 0.23418015
3.0533264 0.15902399 0.244138
3.0958056 0.15483798 0.24470586
1.4679596 0.14373605 0.30111665
1.5149509 0.14888133 0.31825423
1.5452011 0.14587006 0.31114376
3.052917 0.15893137 0.31590748
3.0054572 0.31167209 0.24358061
1.4634415 0.14131396 0.36026204
1.5136427 0.15028676 0.37971428
1.5439677 0.14258178 0.38704509
3.0510263 0.1594591 0.38486916
3.0470181 0.24512349 0.39303216
1.5133754 0.14892636 0.45406288
1.5435034 0.14449351 0.45241639
3.0527759 0.15806255 0.45425719
3.1016557 0.15597135 0.456056
1.5094801 0.15311342 0.53407705
1.5571699 0.15617791 0.54218036
1.6406188 0.14942905 0.54909945
1.7107452 0.15024406 0.54751885
1.7882122 0.14648221 0.55055928
1.8537596 0.15222414 0.55022097
1.9243387 0.15036054 0.54922199
2.0036094 0.15100722 0.55054557
2.0680621 0.15521389 0.54917479
2.1431401 0.14960602 0.55108166
2.2031832 0.15252636 0.55262715
2.2720127 0.15492545 0.54919702
2.3498967 0.15146759 0.55058432
2.4142549 0.15342724 0.5497911
2.4874527 0.15322889 0.55100608
2.5526183 0.15469205 0.54962051
2.626596 0.15661409 0.54565603
2.6976669 0.15525892 0.54826933
2.7666452 0.15423755 0.54749256
2.8381531 0.15775466 0.54624659
2.9066885 0.15630326 0.54652029
2.9712715 0.15776065 0.54441369
3.0443735 0.17022425 0.53492963
3.0892282 0.1855554 0.53506458
1.4663947 0.1758545 0.58838999
1.5163215 0.18445222 0.56563771
1.5663153 0.16697457 0.5930559
1.6426708 0.14967576 0.58687556
1.7164953 0.15038992 0.58502728
1.7846437 0.15051186 0.58696878
1.8536502 0.15136488 0.58653247
1.9261326 0.15230942 0.58700061
1.9975101 0.15109771 0.58521324
2.0652368 0.1519499 0.58439255
2.1349089 0.15224157 0.58409214
2.2081735 0.152817 0.58535022
2.2785721 0.15364154 0.58314031
2.3449039 0.15400855 0.58262306
2.413409 0.15516743 0.58203518
2.4834111 0.1571054 0.57914621
2.5511255 0.15690283 0.58165908
2.6190791 0.15851866 0.57984859
2.6927569 0.15806927 0.58122271
2.7643609 0.15739411 0.58189821
2.8313138 0.1586349 0.57928473
2.9033523 0.15768588 0.57985425
2.9783773 0.1571964 0.57667899
3.0388739 0.19836682 0.54455245
3.0970273 0.17646576 0.57939309
1.515138 0.15511078 0.63053453
1.4590812 0.09790206 -2.527555
1.5011011 0.098284334 -2.5272627
1.5770285 0.091415629 -2.5278394
1.6447841 0.09131366 -2.5267959
1.7171296 0.093224719 -2.5274796
1.7836556 0.094338529 -2.5274982
1.853523 0.093856625 -2.5281584
1.9248431 0.095190063 -2.5282383
1.9964536 0.097053424 -2.5280743
2.0668881 0.096701451 -2.5275671
2.1330438 0.095541775 -2.5273831
2.2052438 0.097242922 -2.5276392
2.2756567 0.09723606 -2.5271578
2.3458614 0.096089333 -2.5277784
2.4151006 0.097986855 -2.5270984
2.4848483 0.097211637 -2.5267456
2.5551531 0.097779229 -2.5263202
2.6235929 0.097646333 -2.5264211
2.6959469 0.096878536 -2.5259526
2.7666135 0.098178841 -2.525089
2.8359606 0.095588289 -2.5253837
2.9032311 0.095653839 -2.5247121
2.9769044 0.099524051 -2.5247223
3.034622 0.10269401 -2.5243556
1.4515187 0.10348395 -2.4860044
1.5069003 0.1064954 -2.4931984
1.5747312 0.10201887 -2.4889843
1.6440623 0.10510524 -2.4880936
1.7140838 0.10242719 -2.4892268
1.7843634 0.10511041 -2.4883623
1.8558846 0.10287363 -2.4904666
1.925372 0.10080725 -2.4879744
1.9960413 0.10184609 -2.4880719
2.0667689 0.09975747 -2.4889205
2.1367629 0.10174627 -2.4877703
2.2023954 0.10302511 -2.4913836
2.2685966 0.1022609 -2.490365
2.3436575 0.10288513 -2.4891665
2.4146309 0.10056007 -2.4909148
2.4843097 0.10036163 -2.4875865
2.5535812 0.10003067 -2.4887104
2.6223142 0.11729912 -2.4614637
2.6948502 0.10937822 -2.473618
2.7563562 0.10902068 -2.4737997
2.8198416 0.11702234 -2.4578884
2.8864582 0.10955126 -2.4728029
2.9514382 0.11846481 -2.4595814
3.051048 0.10371604 -2.4891942
3.0862498 0.10398491 -2.4767592
1.4546906 0.10796194 -2.4037464
1.5152136 0.11647415 -2.3831663
1.6006432 0.15171626 -2.2701175
1.6737165 0.12454783 -2.3267937
1.739339 0.12183266 -2.3737249
1.7959123 0.14201584 -2.3075144
1.8720086 0.12162086 -2.3469472
1.9360636 0.13879786 -2.3177309
1.9843079 0.12294912 -2.4119914
2.0574412 0.11717262 -2.4126551
2.1236737 0.13683791 -2.376369
2.202688 0.11915515 -2.4092636
2.2632961 0.13517298 -2.3788831
2.3523529 0.12074427 -2.4080849
2.4190428 0.11879388 -2.4065034
2.4445288 0.13826525 -2.3679237
2.5556056 0.12160333 -2.4005167
2.6387682 0.13337556 -2.3815713
2.6600146 0.12080302 -2.4009564
2.7387209 0.12138957 -2.4046288
2.8257449 0.13774589 -2.3734362
2.8926275 0.1264006 -2.3862438
2.949816 0.12504904 -2.3662157
3.0365744 0.10904534 -2.4032629
3.0861382 0.10757282 -2.4138629
1.4548848 0.10718635 -2.3431847
1.5160365 0.11515591 -2.3317659
1.5457534 0.10042497 -2.3471017
2.9947002 0.10496414 -2.3466966
3.0501938 0.10838811 -2.3329296
3.087302 0.11099458 -2.3447411
1.4549917 0.10478248 -2.2734709
1.5163026 0.1159475 -2.238179
1.547137 0.099273831 -2.274344
2.9958079 0.10821581 -2.2507179
3.0507662 0.10776383 -2.2621155
3.0858192 0.10948408 -2.2763448
1.4550858 0.10526653 -2.1961749
1.5059221 0.12155616 -2.1630242
1.5482527 0.097220764 -2.2065189
2.9971204 0.10696125 -2.1743209
3.0366848 0.11789086 -2.1570764
3.0853016 0.15584883 -2.1457088
1.4685923 0.10684997 -2.132483
1.5071279 0.11494862 -2.102071
1.5473354 0.10402187 -2.1336222
2.9819291 0.10867947 -2.1231534
3.0375204 0.10690115 -2.1179326
3.0362928 0.16400313 -2.0761063
1.4698415 0.10577544 -2.0633955
1.52377 0.11402709 -2.0543313
1.5456471 0.099753067 -2.0625458
2.9976697 0.10458589 -2.0644608
3.0427241 0.10918202 -2.054805
3.0890803 0.1103433 -2.0669701
1.4549313 0.10240497 -1.9951254
1.5338979 0.12180672 -1.9984496
1.5473971 0.10085635 -1.9933314
2.9318621 0.094324857 -1.9604609
2.9802473 0.10661348 -2.0000305
3.0527568 0.10020208 -1.99774
3.0882246 0.10838591 -1.9957944
1.4555321 0.10525266 -1.923924
1.5100769 0.11487875 -1.9255159
1.5714802 0.10227348 -1.9202278
1.645535 0.10297335 -1.917684
1.7146796 0.10193927 -1.9191197
1.7839844 0.10049747 -1.9194983
1.8538758 0.10138886 -1.9201673
1.926173 0.099759825 -1.920512
1.9956038 0.10016068 -1.9205211
2.0653818 0.10230376 -1.9203296
2.1361666 0.10097794 -1.9216253
2.2053077 0.10025959 -1.9202775
2.2727013 0.10114277 -1.9218689
2.3449333 0.099824756 -1.923072
2.4173453 0.099779226 -1.9231343
2.4852498 0.09744975 -1.9225451
2.5545225 0.099244773 -1.9225198
2.6248951 0.0997089 -1.9245349
2.6969342 0.10002415 -1.9240564
2.7652211 0.099053919 -1.9228951
2.8345654 0.099382646 -1.9250207
2.9067023 0.10028882 -1.9267216
2.970372 0.10060846 -1.9299015
3.0423498 0.098323323 -1.9300833
3.092742 0.10812175 -1.9228239
1.4566393 0.10918677 -1.8612753
1.5253397 0.11956907 -1.8615223
1.6119971 0.14341675 -1.8601637
1.6674101 0.13286456 -1.8671443
1.7756705 0.13761903 -1.8607606
1.808229 0.12658104 -1.8789282
1.8918365 0.13318211 -1.8646561
1.9527844 0.12193748 -1.8665897
1.9858663 0.13182087 -1.8529739
2.0781715 0.12221472 -1.8603805
2.1633914 0.13225773 -1.853865
2.1824505 0.12261011 -1.8597544
2.274899 0.13362814 -1.8538432
2.3691776 0.1233593 -1.8607322
2.3884397 0.13317603 -1.8350464
2.45415 0.12415827 -1.8404567
2.5326707 0.13952729 -1.8276978
2.5968456 0.12517795 -1.8188421
2.6578498 0.13065933 -1.7594913
2.7550712 0.14233615 -1.7786382
2.791775 0.12793031 -1.784835
2.8868415 0.14001763 -1.7850779
2.9656434 0.1253686 -1.7889853
3.0017052 0.12038904 -1.8411368
3.0883281 0.10705196 -1.8587257
1.472723 0.11086477 -1.7638505
1.5275936 0.11782076 -1.7713163
1.6202999 0.18608642 -1.7626127
3.0007892 0.10544711 -1.7887903
3.0157549 0.12457529 -1.758454
3.0883493 0.10621884 -1.7842461
1.4595065 0.1109279 -1.7150267
1.5290205 0.11893295 -1.7150997
1.5454466 0.16892453 -1.6980803
2.9803584 0.10795952 -1.7261775
3.0068758 0.11755151 -1.6981201
3.0874367 0.10393851 -1.7162642
1.4575539 0.10470271 -1.6479034
1.5546758 0.12073454 -1.6658607
1.5476673 0.11043205 -1.6464965
2.9793882 0.11908527 -1.6704381
3.0431399 0.11370221 -1.659026
3.087014 0.14637542 -1.6415753
1.4594326 0.10396313 -1.5759083
1.5550196 0.13485596 -1.5596958
1.5475717 0.10715242 -1.5754539
2.9750948 0.1143332 -1.5894406
3.0127599 0.12058552 -1.60641
3.0633607 0.15954971 -1.5757815
1.4652222 0.10845207 -1.5117136
1.5293162 0.11578358 -1.5188307
1.5493069 0.10606763 -1.5054944
2.9667742 0.11619557 -1.4847714
3.028043 0.12516408 -1.5200969
3.0889697 0.1081209 -1.504972
1.4591992 0.11475021 -1.4530739
1.5245059 0.11733717 -1.4579306
1.5489478 0.11041229 -1.4298769
2.9798472 0.11416545 -1.4711068
3.0256317 0.1159459 -1.4513196
3.0898333 0.10922191 -1.4322228
1.4577955 0.10704843 -1.3667244
1.526942 0.13396944 -1.3605018
1.5490428 0.10812732 -1.3636075
3.0012462 0.11375188 -1.364285
3.0033531 0.1300815 -1.3612822
3.0907934 0.10687721 -1.3629905
1.4745698 0.10640834 -1.2759988
1.5319663 0.1225131 -1.3099188
1.5490774 0.10636048 -1.2934225
2.9375701 0.13245697 -1.2682085
3.0184085 0.12020962 -1.2522496
3.0911455 0.10563736 -1.297092
1.4586126 0.10437919 -1.2253575
1.5313127 0.1223431 -1.228161
1.5494078 0.10964863 -1.2213935
2.9732158 0.11410575 -1.149797
3.0365937 0.11874347 -1.2117079
3.0897698 0.10656025 -1.2257026
1.4977876 0.11753636 -1.1490991
1.5214807 0.12203263 -1.1486344
